2.381985536864192898e+00,-2.396974290080121861e+00,-2.017453487905723719e+01
2.608623422945695491e+00,-1.956764380280155091e+00,-2.017397293048112772e+01
2.767788151459240176e+00,-1.478155024889941993e+00,-2.017475338834545084e+01
2.750218480929588871e+00,-1.003534361210093984e+00,-2.017495647389239721e+01
2.695640510230923770e+00,-5.079137709481550411e-01,-2.017479695417975449e+01
2.634121488440724690e+00,-1.129689727616534078e-02,-2.017447916405440722e+01
2.487339628718129969e+00,4.563623026139145278e-01,-2.017455600914113845e+01
2.267545462908876708e+00,8.938508437177126176e-01,-2.017493716370896806e+01
-1.269272514506191440e-01,-8.566887424288844866e-01,-2.230371820514044501e+01
5.253148566404823860e+00,8.393370840192993398e+00,2.028095109349319358e+01
3.798181584445948999e+00,9.570757614064309138e+00,2.028095103441512492e+01
2.097773411634888063e+00,1.039939745070973665e+01,2.028095107262752350e+01
2.563009599537839911e-01,1.083771779615896591e+01,2.028095097424316151e+01
-1.626958185878625729e+00,1.087431428067841033e+01,2.028095094972064416e+01
-3.490628722312434817e+00,1.061459259970370006e+01,2.028095096181658263e+01
-5.220530317536135279e+00,9.972651357227707791e+00,2.028095099946435909e+01
-6.652720559268119338e+00,8.930229132591200880e+00,2.028095106057310915e+01
-7.716345724249180194e+00,7.540332880223134637e+00,2.028095103386508313e+01
-8.338349385805825520e+00,5.969934486639033366e+00,2.028095103125275500e+01
-8.608444116737622664e+00,4.430890196199536391e+00,2.028095095026758443e+01
-8.615234817009190138e+00,3.000512070256999397e+00,2.028095097282150405e+01
-8.402537631460090140e+00,1.670060517356857899e+00,2.028095097988872908e+01
-7.998332994997764622e+00,4.788200307985304160e-01,2.028095101122609378e+01
-7.440521603145780816e+00,-5.487352472240912826e-01,2.028095100791308525e+01
-6.768646189742427488e+00,-1.414290029973661378e+00,2.028095102375310788e+01
-6.011151275357224932e+00,-2.088659435679182774e+00,2.028095102953500728e+01
-5.171187875303848713e+00,-2.556542706578448509e+00,2.028095090796609057e+01
-4.308502215716719874e+00,-2.779452042506068477e+00,2.028095095422160199e+01
-3.502350648093251806e+00,-2.773321186504597691e+00,2.028095097720363071e+01
-2.806476509380058548e+00,-2.597230585917564838e+00,2.028095101731089756e+01
-2.275770044109962420e+00,-2.331996921805418843e+00,2.028095095892585675e+01
-1.927356147799511366e+00,-2.066520070575091683e+00,2.028095100764277348e+01
-1.722864590033985621e+00,-1.909463846964921441e+00,2.028095098893702541e+01
-1.640172088796543193e+00,-1.906789108325683380e+00,2.028095096967716771e+01
-1.575626025311472223e+00,-2.097245110409571289e+00,2.028095096108242501e+01
-1.400547495768475148e+00,-2.457908202000647968e+00,2.028095097267120295e+01
-9.703746941471180776e-01,-2.920177874231089987e+00,2.028095091726483545e+01
-2.930993410957531964e-01,-3.339838607025138906e+00,2.028095091591308119e+01
6.241017707412437332e-01,-3.651649167039920929e+00,2.028095093514453495e+01
1.748095531888273602e+00,-3.767337891159003416e+00,2.028095090520884725e+01
2.984098517903572834e+00,-3.617527861537902290e+00,2.028095093774651403e+01
4.231773445153631741e+00,-3.163759833613775108e+00,2.028095092236923591e+01
5.391580518694153668e+00,-2.368242810969166001e+00,2.028095092188791781e+01
6.384904100762094359e+00,-1.245331975224544863e+00,2.028095097801803348e+01
7.133036634221038064e+00,1.548530000026526743e-01,2.028095103997257809e+01
7.559081268196503167e+00,1.769343505161707242e+00,2.028095105282630328e+01
7.579916402330335146e+00,3.497935344100771005e+00,2.028095100565804643e+01
7.188090350155077246e+00,5.266966828268679457e+00,2.028095106283611315e+01
7.048191711479843136e+00,7.221013693003980549e+00,1.838298067027671934e+01
5.846069714218054436e+00,8.644577419958173081e+00,1.838364831258048682e+01
4.316874438356331112e+00,9.770582639658320190e+00,1.838326617010979902e+01
2.565608379156409935e+00,1.050565044496803679e+01,1.838228090540052051e+01
7.008351536690275996e-01,1.093576700776716137e+01,1.838241316826368532e+01
-1.210148845576457299e+00,1.092555657302085237e+01,1.838242860168203308e+01
-3.011259275921424283e+00,1.044970647789017981e+01,1.838277128783896330e+01
-4.612004209748689298e+00,9.562586958156087391e+00,1.838309979805627137e+01
-5.986690542825302330e+00,8.432058355848401021e+00,1.838260400033507835e+01
-7.039661813173227145e+00,7.091842656508756448e+00,1.838223396204888971e+01
-7.699558166485733324e+00,5.642099195762035890e+00,1.838233262696687476e+01
-8.065825117642969388e+00,4.211937395895027691e+00,1.838311992774942993e+01
-8.070982582058567445e+00,2.823596851930270102e+00,1.838244222875917089e+01
-7.837076812821393901e+00,1.496250419390989794e+00,1.838250999235859595e+01
-7.498639757306871267e+00,3.188016622814628942e-01,1.838350131451543845e+01
-7.037324880689980411e+00,-6.923654569589269281e-01,1.838386491796466515e+01
-6.446391245871609499e+00,-1.565535251541835260e+00,1.838327204707194795e+01
-5.701986518491312772e+00,-2.212879788480393461e+00,1.838265608630324266e+01
-4.926458835175568041e+00,-2.696822869503234354e+00,1.838353712109801208e+01
-4.205687915214058492e+00,-2.986068213496507529e+00,1.838362023302588710e+01
-3.511237891173231596e+00,-3.053466880453736376e+00,1.838297031992886588e+01
-2.941822565362615549e+00,-3.045793360733132893e+00,1.838307533958368012e+01
-2.547390029953227053e+00,-2.999499804516918555e+00,1.838321050840504256e+01
-2.217077884117425679e+00,-2.936977359212078476e+00,1.838260435828071593e+01
-1.923146792069323929e+00,-2.896582137730274731e+00,1.838301843737547614e+01
-1.649471663168331270e+00,-3.122808887622057217e+00,1.838310953349009580e+01
-1.335745552982029682e+00,-3.409606716405747306e+00,1.838345594085366130e+01
-9.165982839822333084e-01,-3.702576365459322005e+00,1.838307472842953416e+01
-2.701362760718692968e-01,-4.093444033701239881e+00,1.838271733305588995e+01
6.041449644170389099e-01,-4.397634515701943414e+00,1.838307921503188780e+01
1.730730833084349385e+00,-4.607739849866232085e+00,1.838320705928879306e+01
2.902130843290299911e+00,-4.511192918638527338e+00,1.838360590520903770e+01
4.129089160036770068e+00,-4.111315398511879771e+00,1.838296756850236591e+01
5.475990822422827087e+00,-3.448231777102011897e+00,1.838278064729128047e+01
6.714524187324159676e+00,-2.456536247041261056e+00,1.838292983793781943e+01
7.759085387740613626e+00,-1.178466379375642026e+00,1.838217102783470480e+01
8.400456085856824018e+00,3.876336013924623902e-01,1.838288746182221800e+01
8.522375974959219391e+00,2.123595402819855593e+00,1.838266245547266919e+01
8.442099741810636715e+00,3.883425054054713943e+00,1.838166862073671837e+01
7.922191980675801659e+00,5.588230984869131390e+00,1.838200298961317003e+01
7.402795538389150387e+00,7.380285968055577683e+00,1.648529909041610608e+01
6.142649283063743582e+00,8.787362151883225891e+00,1.648569903628761679e+01
4.571765469329307052e+00,9.877976603636842157e+00,1.648537098256164057e+01
2.778537706193603629e+00,1.054557205780551499e+01,1.648555633039835655e+01
9.258618313763199437e-01,1.087319275215926595e+01,1.648513502687040244e+01
-9.408064575609396130e-01,1.077514373033296735e+01,1.648497050288608534e+01
-2.725042014444958305e+00,1.025191217358620932e+01,1.648489150744544318e+01
-4.291775428305156126e+00,9.342405413035343997e+00,1.648490624681477001e+01
-5.601073842563480731e+00,8.186387753159625191e+00,1.648398598219100819e+01
-6.662609722788853439e+00,6.872857753108849721e+00,1.648466028754029722e+01
-7.352279544539381817e+00,5.455572154197525947e+00,1.648464658673656658e+01
-7.695507164543590406e+00,4.048312910041837576e+00,1.648509657137814699e+01
-7.694568289131312966e+00,2.656004263900441309e+00,1.648571539999301905e+01
-7.439128242815577607e+00,1.331631757483445755e+00,1.648472976657588518e+01
-7.142274118667095273e+00,2.257342008753542295e-01,1.648445224727195679e+01
-6.637516180357948770e+00,-7.802142231956954443e-01,1.648462451206012247e+01
-6.030837714040726105e+00,-1.598945910288066541e+00,1.648452054945701661e+01
-5.347131526545472191e+00,-2.217603497123656453e+00,1.648426039188163728e+01
-4.653160951014911895e+00,-2.683670393397975751e+00,1.648424568538177226e+01
-3.999905580857552323e+00,-2.960831450486818728e+00,1.648541318779412990e+01
-3.397363701933938884e+00,-3.093906423329759292e+00,1.648517954169032151e+01
-2.907980792899595102e+00,-3.219144404729447739e+00,1.648474014495572604e+01
-2.573677937474394994e+00,-3.320601211853583035e+00,1.648501265101988622e+01
-2.203913496771143343e+00,-3.306585651147043503e+00,1.648462586098830585e+01
-1.806446659383311282e+00,-3.272728789765087409e+00,1.648451912597798241e+01
-1.485792219687875892e+00,-3.606429700133875649e+00,1.648545869189083035e+01
-1.056713122868827126e+00,-3.970411101468718673e+00,1.648600454184309427e+01
-5.313086281903514063e-01,-4.307283237843007484e+00,1.648522035403887287e+01
2.394740648469504407e-01,-4.753472225750130953e+00,1.648516731692919990e+01
1.249944752709933660e+00,-5.051907994387018874e+00,1.648535324304448579e+01
2.485679356243515326e+00,-5.172089194302214032e+00,1.648463285399858336e+01
3.689902796425415410e+00,-4.952464390291071439e+00,1.648413225486782707e+01
4.921081344842255234e+00,-4.409384037058672767e+00,1.648468276021918300e+01
6.217066595454183719e+00,-3.639501450680046268e+00,1.648476728718740247e+01
7.473501790578330528e+00,-2.536245319623416261e+00,1.648404669109607212e+01
8.448878379050778875e+00,-1.144191333530240939e+00,1.648470767359036770e+01
9.058027077970972840e+00,4.935533493715755782e-01,1.648523485309180003e+01
9.262457240121648283e+00,2.248131350810296691e+00,1.648469257829259149e+01
8.950127558264313166e+00,4.019685107607742225e+00,1.648465811592209818e+01
8.330394221757197570e+00,5.747513381336902150e+00,1.648457693801602275e+01
7.342928323760395948e+00,7.619377603742064409e+00,1.458750142231703073e+01
5.959737830618137444e+00,8.936306621974095421e+00,1.458687660516032381e+01
4.341745628099639376e+00,9.936398340514534411e+00,1.458651710416333813e+01
2.547833978838759617e+00,1.050838652391087535e+01,1.458622750522472522e+01
7.121350849890227819e-01,1.066929605708443418e+01,1.458554038127314278e+01
-1.090249102285401950e+00,1.041707749222623036e+01,1.458648271015302633e+01
-2.782427738754422730e+00,9.793913544397678805e+00,1.458668980601736997e+01
-4.235832212139904129e+00,8.892808151055753285e+00,1.458703863560485381e+01
-5.483634380757324678e+00,7.792579511056635155e+00,1.458673797646766168e+01
-6.460296271731010620e+00,6.528032831987025553e+00,1.458577459024193246e+01
-7.090420395537226028e+00,5.140889898189284324e+00,1.458541085328048403e+01
-7.331030531076773826e+00,3.754027614846096927e+00,1.458540423582749135e+01
-7.274412481286356424e+00,2.408534363983954485e+00,1.458529772515928080e+01
-7.093037872281953149e+00,1.253314416813661847e+00,1.458674400791289827e+01
-6.740203661553179515e+00,1.692119311870512455e-01,1.458671548298817200e+01
-6.194232990596769461e+00,-7.324239282268750761e-01,1.458620778502595350e+01
-5.619706489006834893e+00,-1.432100340160732843e+00,1.458659570039048781e+01
-5.019174008656803743e+00,-1.983852557357677737e+00,1.458673972543890862e+01
-4.384947779201802120e+00,-2.394298999093346758e+00,1.458618022691605098e+01
-3.807414967354855406e+00,-2.642533708142341009e+00,1.458662211318714697e+01
-3.308292953973200667e+00,-2.815058099658332758e+00,1.458653645135754395e+01
-2.925568193674851880e+00,-3.007158914584559195e+00,1.458569156688095880e+01
-2.612432981363538520e+00,-3.157073348239010535e+00,1.458602756305245229e+01
-2.273349868481140845e+00,-3.308480105431607310e+00,1.458677843333930113e+01
-1.920226805874388765e+00,-3.461059091720100511e+00,1.458610903629452160e+01
-1.602950687258540619e+00,-3.920610611592667549e+00,1.458568952354654691e+01
-1.069427794473309934e+00,-4.419105297849086789e+00,1.458705784879298228e+01
-3.865485915638795511e-01,-4.870190765661156718e+00,1.458690274970068401e+01
5.541320035871994953e-01,-5.298088712253228749e+00,1.458727278020303864e+01
1.680233339199357800e+00,-5.559213751225850153e+00,1.458746177232330332e+01
2.998175777582018142e+00,-5.631152617669605398e+00,1.458682520830421225e+01
4.370800182444129156e+00,-5.352730128054210113e+00,1.458703163026616245e+01
5.669901915906149448e+00,-4.713872485087491349e+00,1.458733853960054283e+01
6.955576421584733104e+00,-3.798018319974023171e+00,1.458603332273808562e+01
8.123689124247917448e+00,-2.554477101796605254e+00,1.458597417161978349e+01
9.003028899876225566e+00,-1.041304493737670978e+00,1.458692741264203363e+01
9.518802674333739944e+00,6.750971415902327077e-01,1.458612397589181775e+01
9.565460607557790595e+00,2.504299887330555308e+00,1.458634403947866964e+01
9.208742403674072818e+00,4.310653076368129888e+00,1.458740191089808391e+01
8.435984254364566226e+00,6.040360186855409097e+00,1.458769470368751797e+01
7.958755915359397193e+00,7.210826183760313590e+00,1.268732530856737029e+01
6.480193021590778812e+00,8.567979908779941312e+00,1.268825436348730129e+01
4.777247483783583881e+00,9.587382894161484259e+00,1.268876746242725062e+01
2.948451851086272946e+00,1.015669759096090097e+01,1.268812531566132940e+01
1.043534730335994087e+00,1.029209548528578644e+01,1.268777057131829977e+01
-7.980219918092360532e-01,9.987628834962979596e+00,1.268842993554558873e+01
-2.490268971466099934e+00,9.354181848162390622e+00,1.268855371105597740e+01
-4.003673079097565868e+00,8.503936709986250619e+00,1.268867895697957238e+01
-5.301293433782819697e+00,7.438031092959036528e+00,1.268771537601251254e+01
-6.327869130734865344e+00,6.157986390838882329e+00,1.268838035510631634e+01
-7.005108321471018584e+00,4.770468162998017903e+00,1.268837667186731899e+01
-7.302464230460197214e+00,3.377762580097726008e+00,1.268845521526794684e+01
-7.333709727504627018e+00,2.027592361071825167e+00,1.268880629288102035e+01
-7.186079568862377087e+00,7.990248699767952267e-01,1.268873599042835032e+01
-6.828503575882437282e+00,-2.975273950552417279e-01,1.268859470544240509e+01
-6.311262149387741438e+00,-1.220909194153083188e+00,1.268777130893535521e+01
-5.794983179183097910e+00,-1.968914735579665454e+00,1.268782174027831111e+01
-5.175373258826091671e+00,-2.577005871321047525e+00,1.268859034302348832e+01
-4.502214012705506363e+00,-3.033234073744968562e+00,1.268879006110253194e+01
-3.704579242883871082e+00,-3.258689052840113565e+00,1.268856568972361210e+01
-3.195600599598193536e+00,-3.425794846729605769e+00,1.268786159112232248e+01
-2.736392517473248187e+00,-3.564954669418967992e+00,1.268817281808565767e+01
-2.367601722642180384e+00,-3.765629394624029125e+00,1.268848983836012501e+01
-1.995240706259055141e+00,-3.963265999214441226e+00,1.268782882969230208e+01
-1.754751807537872299e+00,-4.218118593252642157e+00,1.268808187426395406e+01
-1.349447304416301119e+00,-4.629558891049216030e+00,1.268763811172802214e+01
-7.505434560279011791e-01,-4.975573976794548159e+00,1.268818929160767439e+01
-2.627120409308858484e-02,-5.432418487595228385e+00,1.268835418829448258e+01
9.084193636533219873e-01,-5.860469693144587211e+00,1.268852586721868647e+01
2.022649159835613109e+00,-6.131798074155306644e+00,1.268916838200403774e+01
3.314497685242892011e+00,-6.218870906283899380e+00,1.268871467823785615e+01
4.733634472845112739e+00,-5.975401227545223293e+00,1.268809507642917822e+01
6.129282092224243250e+00,-5.419154695820740386e+00,1.268861884045248978e+01
7.477016412347063046e+00,-4.531734543742713228e+00,1.268838842567534364e+01
8.757639959574619937e+00,-3.336121858937211915e+00,1.268771629142500856e+01
9.726008840747848438e+00,-1.789105895178206396e+00,1.268743227666051432e+01
1.022722646330808161e+01,-3.176600724484224259e-03,1.268817020677171570e+01
1.027819647798792246e+01,1.909239745083835871e+00,1.268863363154077284e+01
9.899377944289456721e+00,3.801191646130303692e+00,1.268905898119855635e+01
9.103687508771663772e+00,5.583759621489136293e+00,1.268808058561643648e+01
7.797218893078274427e+00,7.204411501760867864e+00,1.079044053225880795e+01
6.280932794740795799e+00,8.508296104534849746e+00,1.079087570580517941e+01
4.579403777957221422e+00,9.436834342611597037e+00,1.079080692871304592e+01
2.767941352158085344e+00,9.977009600658455213e+00,1.079024428260964719e+01
8.959905141566594233e-01,1.003051190859521213e+01,1.079024062590143807e+01
-8.702132791417884761e-01,9.650833917447741328e+00,1.078995188507036929e+01
-2.490045265081542780e+00,9.003432691471067173e+00,1.079101344064398660e+01
-3.968978873787289530e+00,8.149275591123826601e+00,1.079108270381517443e+01
-5.209917978284615003e+00,7.063473439165692369e+00,1.079118055979784607e+01
-6.154801443347846401e+00,5.828054175925554858e+00,1.079046440990174816e+01
-6.786259836670288870e+00,4.473820336856796587e+00,1.079029512651782952e+01
-7.061124367445091643e+00,3.108353483854491728e+00,1.079113240519013850e+01
-7.069377899745511229e+00,1.812391969109585999e+00,1.079022673240318220e+01
-6.912725406856611521e+00,6.305216717383461678e-01,1.078922364399267586e+01
-6.517073165037339244e+00,-4.033497149187634800e-01,1.079002407573747568e+01
-5.989358033802022696e+00,-1.260728673776922104e+00,1.079041633341245898e+01
-5.384387220576094535e+00,-1.940465443589002303e+00,1.079022647088768494e+01
-4.672645782437026440e+00,-2.483471463723217809e+00,1.079101422879307570e+01
-4.064031743238301964e+00,-2.858613539316189112e+00,1.079061909786228135e+01
-3.553347147726967137e+00,-3.143721470630598702e+00,1.079087563598885957e+01
-3.069840362495963593e+00,-3.325337770354133582e+00,1.079053297466728800e+01
-2.616007281397444206e+00,-3.444875423315233665e+00,1.079065346370657785e+01
-2.279933303245788245e+00,-3.673289305323929277e+00,1.079030851011567371e+01
-1.977547591656163117e+00,-3.950889259274582788e+00,1.079034187722009008e+01
-1.755958335087793198e+00,-4.352893219170274719e+00,1.079030148500825526e+01
-1.336327787493757802e+00,-4.846506431625944522e+00,1.079079280249920281e+01
-7.045053039125102057e-01,-5.335653624157794539e+00,1.078957193741685572e+01
9.652165259545686382e-02,-5.838368692170772256e+00,1.078946929213068273e+01
1.119877494045392829e+00,-6.261846737112127137e+00,1.079027347914694523e+01
2.284308876546182976e+00,-6.493068961918439186e+00,1.079060822116127660e+01
3.606873816042536873e+00,-6.487230101576296981e+00,1.079084435330814706e+01
5.052154992587237992e+00,-6.185406063934212995e+00,1.079008994187345571e+01
6.511849453022263923e+00,-5.552992848276943505e+00,1.079024664924003396e+01
7.859794315231794393e+00,-4.604536722221048706e+00,1.079003759137275331e+01
9.006568822973136434e+00,-3.299133315484815476e+00,1.079102851599204094e+01
9.895111108563794389e+00,-1.724534027279981618e+00,1.079144246740613688e+01
1.035844075143900866e+01,8.313294420047334654e-02,1.079084342682066655e+01
1.040293920714707809e+01,2.023142634366743131e+00,1.079065453406056818e+01
9.939455657682360723e+00,3.917386892987813063e+00,1.079076652897499677e+01
9.055604166242824604e+00,5.655078106344515909e+00,1.079035579373602260e+01
7.726053498881155335e+00,7.151113360435543242e+00,8.892178758552871543e+00
6.196809955057405617e+00,8.344501279027600305e+00,8.892496809160505222e+00
4.498490882207081043e+00,9.198485726917112970e+00,8.892982802248535990e+00
2.688381775688598818e+00,9.688649285470159356e+00,8.892881767977408813e+00
8.752073653965584121e-01,9.704667002485358296e+00,8.892651977057662194e+00
-8.350609600844209890e-01,9.297886055833798125e+00,8.891469236892982408e+00
-2.459368455963888866e+00,8.668310577837548436e+00,8.891903260108623641e+00
-3.901869830207297163e+00,7.806858042544243759e+00,8.892684155440388594e+00
-5.039181202123160119e+00,6.724444641348370055e+00,8.892475842212203219e+00
-5.931685972089715264e+00,5.521304836170756403e+00,8.892590030498258358e+00
-6.535347377515728695e+00,4.226863438581689003e+00,8.893535389422174475e+00
-6.811625985350369561e+00,2.898646329279775280e+00,8.892179782027881174e+00
-6.859938483073825921e+00,1.636965299508519989e+00,8.891193246744265366e+00
-6.682727108504679769e+00,4.692854279073794821e-01,8.892151079296050753e+00
-6.268956205369894619e+00,-5.407028360909100773e-01,8.892363782509910664e+00
-5.703806390557353723e+00,-1.370020783362163819e+00,8.891962784258490515e+00
-5.057875579506303509e+00,-2.018747656820210512e+00,8.891906038962055447e+00
-4.445635360171553252e+00,-2.509160461835711953e+00,8.892222647629372645e+00
-3.973161755279021268e+00,-2.892999375798267270e+00,8.892906272269982537e+00
-3.495565895572670723e+00,-3.191945487464420417e+00,8.892313619033698657e+00
-2.982683224258241950e+00,-3.421546779433647600e+00,8.891810188390397940e+00
-2.621023955340452183e+00,-3.625548002555199378e+00,8.891747578837888355e+00
-2.313111984875988902e+00,-3.881295265387886495e+00,8.891447341292780138e+00
-2.053234500052455225e+00,-4.242995727600384903e+00,8.891209945116814950e+00
-1.756171836527536056e+00,-4.717294200162033491e+00,8.891668253078986339e+00
-1.260683641383354203e+00,-5.254989382269440235e+00,8.892372001122499370e+00
-6.176567322443972108e-01,-5.789149881645926143e+00,8.892066277157324450e+00
2.568632513316360111e-01,-6.224892760154110860e+00,8.892343546918469954e+00
1.340824647908146261e+00,-6.586517211790651416e+00,8.892425136328020230e+00
2.539770407264642316e+00,-6.759028238484361850e+00,8.892226872171809404e+00
3.895408163105352539e+00,-6.666146678610388676e+00,8.891680245737420663e+00
5.351381420576210246e+00,-6.306168995132722443e+00,8.891649177422493722e+00
6.817590749502436154e+00,-5.640728562246795974e+00,8.891994032229211697e+00
8.159470497560700863e+00,-4.622289588435872787e+00,8.891307621265397643e+00
9.218339155547445429e+00,-3.267076152535283384e+00,8.892141112388324942e+00
9.958018611401863396e+00,-1.630659099589096162e+00,8.892540710095957479e+00
1.032692457112702478e+01,1.703338120557309487e-01,8.891757708232939095e+00
1.034087538788097405e+01,2.084697182201163290e+00,8.891358183726774556e+00
9.900894340424896356e+00,3.962548324735926997e+00,8.891650242991401498e+00
8.990109700399646186e+00,5.674305551582136786e+00,8.892520331888125185e+00
7.537285561724877070e+00,6.960279847847751000e+00,6.994211449279953641e+00
6.016219389402372997e+00,8.126805264790714745e+00,6.993630594109417231e+00
4.348587649119198595e+00,8.931372358932563316e+00,6.993761878755195838e+00
2.575428738742434831e+00,9.335969416523628439e+00,6.993942642198824444e+00
7.775685201375764910e-01,9.336626742742529572e+00,6.993997038849641079e+00
-9.606778958281311231e-01,8.934101197529537686e+00,6.993913046688938095e+00
-2.515689849950245360e+00,8.314208717938601723e+00,6.994269391225654608e+00
-3.821087628398057490e+00,7.436309662765548723e+00,6.994170948963026824e+00
-4.911300526285685919e+00,6.379049851390520054e+00,6.993718024711145453e+00
-5.753922741968901633e+00,5.223537430248859081e+00,6.994125178491469086e+00
-6.335188985418833241e+00,3.971591996806039582e+00,6.994813283572418605e+00
-6.628017588239455193e+00,2.691001434538051296e+00,6.994241726107031099e+00
-6.732601206459404075e+00,1.448807805536402427e+00,6.994461420840369925e+00
-6.563029213791429228e+00,2.964000374322557363e-01,6.994222134958117287e+00
-6.112839653956555708e+00,-7.049954839664689388e-01,6.993628742692544975e+00
-5.599920892937141126e+00,-1.549469310230949803e+00,6.994330725095940338e+00
-5.001440407873976035e+00,-2.197792570677596036e+00,6.993709189812768123e+00
-4.415912897368466261e+00,-2.716960976350673462e+00,6.994534305787360573e+00
-3.940806070074773348e+00,-3.074913411605935121e+00,6.995319417123099015e+00
-3.495743017062131752e+00,-3.361371931323875017e+00,6.993968088022104901e+00
-3.051043698559557260e+00,-3.612690030794935225e+00,6.993314950876935221e+00
-2.715823719817930026e+00,-3.897644497109909345e+00,6.993601399311301314e+00
-2.394616985854775670e+00,-4.227621989012888548e+00,6.994730759413222643e+00
-2.128116423626384091e+00,-4.618766692998400814e+00,6.994872386215019056e+00
-1.723858424338967410e+00,-5.092934511007150000e+00,6.993458474206177833e+00
-1.170803518069721605e+00,-5.622791005392838493e+00,6.993236026961505480e+00
-5.205393375772351394e-01,-6.096465073827313397e+00,6.994241353279051943e+00
3.630569826444842718e-01,-6.483766199214136883e+00,6.994038220917025761e+00
1.478902452158215919e+00,-6.807149715264355194e+00,6.993804863300239205e+00
2.712244289396299468e+00,-6.911927192091290806e+00,6.994392713197717271e+00
4.087373769706932336e+00,-6.780496284002209606e+00,6.993977792564287199e+00
5.531068911748235450e+00,-6.391200085934668706e+00,6.993960583933409580e+00
6.996105433276176733e+00,-5.682496638004256084e+00,6.993985684749660869e+00
8.318872925214503056e+00,-4.620317230350647897e+00,6.993703945295433044e+00
9.345106917028020987e+00,-3.222519402723694970e+00,6.994381312575433718e+00
1.004153506893250736e+01,-1.568797478722457450e+00,6.994212460682751598e+00
1.034192776810409597e+01,2.574636955285243278e-01,6.994280054607075137e+00
1.032620284134590172e+01,2.191440892659807016e+00,6.993919042139886244e+00
9.784480009645040610e+00,4.011640555612015824e+00,6.993214072481348964e+00
8.821105605239813130e+00,5.599831314133141724e+00,6.993768564349837291e+00
7.212864095383265450e+00,6.911144807192653339e+00,5.095466893754096560e+00
5.701719686914298535e+00,7.962953683448590780e+00,5.094586545434579783e+00
4.041859447031899144e+00,8.665525779098404158e+00,5.095883331149967610e+00
2.276060487754018258e+00,8.986415581150533072e+00,5.096391810713663872e+00
5.363644223458545746e-01,8.913793949076247003e+00,5.096812438710930593e+00
-1.059697049636056931e+00,8.496463019635601910e+00,5.097217143698395070e+00
-2.511785450165163525e+00,7.895530453196631271e+00,5.096520998927188018e+00
-3.750095804130178401e+00,7.039957362599052360e+00,5.096438364840246926e+00
-4.768499797838920529e+00,6.004393885640514128e+00,5.096921065641086379e+00
-5.568552889780176152e+00,4.883156424374480942e+00,5.096710476336472340e+00
-6.127585682550940049e+00,3.707777823363516134e+00,5.095727399669441660e+00
-6.453467427100652465e+00,2.495638163699465117e+00,5.095903033425801532e+00
-6.586832880100209842e+00,1.313829598534165699e+00,5.095394868697419533e+00
-6.485295501106309146e+00,1.805041570469767542e-01,5.095601025365644077e+00
-6.175667507231872300e+00,-8.289488055410807466e-01,5.095861349354184000e+00
-5.684024871963739400e+00,-1.714385637880247115e+00,5.095385477069223512e+00
-5.074156258640522665e+00,-2.416634725474927858e+00,5.095375775717806199e+00
-4.543582298313048717e+00,-3.027229904166339303e+00,5.095391808032724512e+00
-4.045822332582462266e+00,-3.451580080181554600e+00,5.095210428362708655e+00
-3.523611257669796437e+00,-3.721453000895536434e+00,5.095812701391137622e+00
-3.106063429680580246e+00,-4.045851924163402558e+00,5.096226712166349593e+00
-2.784453641504491817e+00,-4.275359531061496909e+00,5.095817594916300486e+00
-2.471128589029723877e+00,-4.575539240320145140e+00,5.095402188457256898e+00
-2.136837322655313454e+00,-4.968938967284702635e+00,5.095886263805843086e+00
-1.648561240375683745e+00,-5.419983304685377590e+00,5.096318182021885690e+00
-1.118069828362294071e+00,-5.885974206908477058e+00,5.096780369835727242e+00
-4.413241712441388076e-01,-6.289583895766272192e+00,5.096693684747388708e+00
4.213625684115787084e-01,-6.623505526662795795e+00,5.095778241477471937e+00
1.539927316275705893e+00,-6.904943743351296348e+00,5.095325710922238294e+00
2.775327662820970431e+00,-6.963266664506901904e+00,5.096673757601331012e+00
4.147013806571360206e+00,-6.796479686725559688e+00,5.096823800745950095e+00
5.591848875194122215e+00,-6.406392269925557770e+00,5.095755666129526240e+00
7.014933016551439415e+00,-5.677468761741484293e+00,5.095455203247266418e+00
8.385392399790561058e+00,-4.600228128339526101e+00,5.096299477467804095e+00
9.367430445139726558e+00,-3.169153936553742668e+00,5.095887141593476777e+00
9.958688918233972842e+00,-1.505173670424638566e+00,5.095368448625817059e+00
1.021639403328885187e+01,3.009034946499888896e-01,5.095854343096752004e+00
1.008997877948470290e+01,2.150521449838475707e+00,5.095856606897975816e+00
9.507944472278968107e+00,3.922933612389027935e+00,5.096029147665184666e+00
8.498010732878311657e+00,5.554259565273056864e+00,5.095854456455241710e+00
6.809600707720503188e+00,6.706953954578127153e+00,3.198569125191298657e+00
5.344005513885033309e+00,7.643060081210760970e+00,3.197762521731993157e+00
3.737301825404715672e+00,8.251539555697743111e+00,3.197941383451000874e+00
2.056034289916561786e+00,8.500625345158761448e+00,3.197473709028253008e+00
4.213868618934247801e-01,8.400626303967761999e+00,3.197437761844450943e+00
-1.098692554658550646e+00,8.015471072466587188e+00,3.197710151199487871e+00
-2.464719626299325839e+00,7.439636197783707772e+00,3.197914943226733975e+00
-3.659491254090979417e+00,6.629565349262391827e+00,3.197495252614121597e+00
-4.631556912424640515e+00,5.631288423168675727e+00,3.198038102234999069e+00
-5.385161072622906886e+00,4.553833922504427534e+00,3.198267476416269517e+00
-5.929917214086643185e+00,3.425979901295067354e+00,3.198710802326476088e+00
-6.279179114995120159e+00,2.285133819186488502e+00,3.198143574563555802e+00
-6.426019575626018110e+00,1.165226723904883688e+00,3.198711610444279430e+00
-6.356712683709339728e+00,7.837859619910192421e-02,3.198829743553780691e+00
-6.101098100067944507e+00,-9.152036107334424742e-01,3.198457420879443180e+00
-5.721094437576352831e+00,-1.806981893669888484e+00,3.198640556010011515e+00
-5.220469598634702280e+00,-2.560232695305552753e+00,3.197407518814855631e+00
-4.613336095433934858e+00,-3.168208804349386565e+00,3.198224334068019203e+00
-4.075980793343381592e+00,-3.630365018610580918e+00,3.198652548405425566e+00
-3.605455692788187338e+00,-3.982989976011554134e+00,3.198153705139259451e+00
-3.192949103516810716e+00,-4.366585216446242868e+00,3.198805633282696625e+00
-2.785757732275472520e+00,-4.694827507608149375e+00,3.197774212338537758e+00
-2.409530770832312818e+00,-5.022909960896339676e+00,3.197417473983311442e+00
-2.008735999178516085e+00,-5.339602468632386412e+00,3.198177911147547015e+00
-1.551025869496211795e+00,-5.685299487431631604e+00,3.198156643686166589e+00
-1.039148160612135996e+00,-6.060911790151550349e+00,3.197395099024761489e+00
-3.864137791673674105e-01,-6.390435647289113952e+00,3.197734758416454603e+00
4.442700623853930164e-01,-6.673214062427906157e+00,3.197281942663237064e+00
1.561950412128304100e+00,-6.921689333781167797e+00,3.197392691274293597e+00
2.780209291477320654e+00,-6.947656087040511963e+00,3.198791353835787721e+00
4.233253394122630908e+00,-6.792746341493803186e+00,3.198750936534989098e+00
5.547202744356511950e+00,-6.315802730221932393e+00,3.198503557999096358e+00
6.797290766284732833e+00,-5.558035153222993685e+00,3.197833993722096757e+00
8.039003295811804506e+00,-4.466422289663881884e+00,3.197473859778218852e+00
9.011904654964538963e+00,-3.087172968270583961e+00,3.197433613339066838e+00
9.581501578573302425e+00,-1.478253255601478688e+00,3.197988707072646264e+00
9.881364089298326547e+00,3.611935767328364744e-01,3.198493411501984518e+00
9.752557993226442790e+00,2.398222641703782632e+00,3.199028680016601900e+00
9.109953441350439718e+00,4.060367561425258565e+00,3.199098634581603928e+00
8.106869142141443163e+00,5.520529043027106120e+00,3.199037511729595273e+00
6.369023920226406510e+00,6.333588411448324962e+00,1.299082873164786101e+00
4.963635675549864956e+00,7.168016725781756193e+00,1.298780556989975521e+00
3.431301862736618524e+00,7.710860008808683830e+00,1.300354461266669759e+00
1.872186079898002120e+00,7.940463337837408986e+00,1.300403023159885096e+00
3.417855744889636838e-01,7.864745850276211314e+00,1.300295640342709502e+00
-1.102421454742173568e+00,7.510685961962124679e+00,1.299904470054924488e+00
-2.406365583682005926e+00,6.967649848147080327e+00,1.299090947837643562e+00
-3.550091604630754460e+00,6.204395821758613039e+00,1.300230787921697662e+00
-4.485084781854235203e+00,5.286582375581838633e+00,1.299948388610418837e+00
-5.230689624590620923e+00,4.286549073393421061e+00,1.299691206614352224e+00
-5.778194928171972222e+00,3.198406993994778347e+00,1.300214446593433104e+00
-6.141310607724785875e+00,2.128899354049036408e+00,1.299706772229134222e+00
-6.304131114043608264e+00,1.061681060863457704e+00,1.300187409674851580e+00
-6.274384667511647251e+00,1.436485372416962392e-02,1.300297596384190957e+00
-6.049160081484918905e+00,-9.782894601587854844e-01,1.299342348785887502e+00
-5.691290668160478461e+00,-1.859158350436180829e+00,1.299497919610509200e+00
-5.214773154686136003e+00,-2.619142727340642463e+00,1.301042308918312074e+00
-4.654366444421920157e+00,-3.221595414429633486e+00,1.299608572779387794e+00
-4.147609160220596891e+00,-3.701916148161759512e+00,1.299444937900507968e+00
-3.710254679614236828e+00,-4.143825710721692701e+00,1.300357482774410878e+00
-3.240759635549310236e+00,-4.532089067836798435e+00,1.300459821912745451e+00
-2.837449778107664855e+00,-4.863862964670622624e+00,1.300417381225668745e+00
-2.440555228862048232e+00,-5.192395613408970156e+00,1.300192418726503485e+00
-1.958693260063500974e+00,-5.507156624227202535e+00,1.300254889760321220e+00
-1.475501509839350689e+00,-5.827090569493491579e+00,1.299818886632944981e+00
-9.711196215603042914e-01,-6.127523433249068674e+00,1.299892488291291004e+00
-3.153304518451216509e-01,-6.407622735720376106e+00,1.298722731848937828e+00
4.694230688037006605e-01,-6.628057156452474175e+00,1.298909739984444256e+00
1.544088153993910417e+00,-6.783042942902341110e+00,1.299663330186615617e+00
2.682122474285441704e+00,-6.762474896661776036e+00,1.300244034493430068e+00
3.982017774551430023e+00,-6.564321978014850067e+00,1.298938366092425856e+00
5.235210508808044949e+00,-6.088219507054121848e+00,1.299319793844316839e+00
6.478800530990700857e+00,-5.318543296193159797e+00,1.299641117901446430e+00
7.639206160973653681e+00,-4.251232615645188062e+00,1.299062255762231333e+00
8.614996647776461458e+00,-2.854059260817223276e+00,1.299269744864228304e+00
9.196334546940494903e+00,-1.274573887846905063e+00,1.300485995306334797e+00
9.442657072449293310e+00,4.289726888690774675e-01,1.300267207133182668e+00
9.255967954094675321e+00,2.195856153802560051e+00,1.300068441609119718e+00
8.610569331134078297e+00,3.822530645683535955e+00,1.300345052262807943e+00
7.642427631770923213e+00,5.235919365041528550e+00,1.300029878336428135e+00
5.926118238259937776e+00,5.764817542230929348e+00,-5.978865888026687614e-01
4.581010729163775608e+00,6.569967428036801671e+00,-5.974104946461284982e-01
3.149637833531462761e+00,7.083659421115124033e+00,-5.968523422700877656e-01
1.692765066977933941e+00,7.321052908635127032e+00,-5.978542337620391667e-01
2.692927183620674181e-01,7.267834640664780466e+00,-5.991686908967281955e-01
-1.087149302427394826e+00,6.980060491474725737e+00,-5.982714484154496581e-01
-2.326210902625529098e+00,6.489856141711129567e+00,-5.991355126896142913e-01
-3.401730983852895296e+00,5.791966331686676739e+00,-5.987347267168540155e-01
-4.325854295813299721e+00,4.963938575301375167e+00,-5.980193099973147852e-01
-5.072316254820448123e+00,4.043499500170216088e+00,-5.980761832509926545e-01
-5.623593604942591639e+00,3.033914505802880690e+00,-5.985746564603854347e-01
-5.991875427652234798e+00,2.011011516159965318e+00,-5.987114463434815015e-01
-6.188886201667788356e+00,9.941946518030653213e-01,-5.981498949080215066e-01
-6.195188567358295373e+00,-1.168287854026583972e-02,-5.979432154246440145e-01
-5.989183664435216770e+00,-9.994582771681623790e-01,-5.976631183284824012e-01
-5.633030476171164480e+00,-1.866052272821538072e+00,-5.975668475732803797e-01
-5.173433054607002646e+00,-2.603323010250903291e+00,-5.984722703619840267e-01
-4.648366759138476745e+00,-3.166160597261993725e+00,-5.996105851400121978e-01
-4.163877997503641737e+00,-3.676772366907652856e+00,-5.990650951954392678e-01
-3.703880635484885442e+00,-4.083178640037234963e+00,-5.982231331504892502e-01
-3.277161158786549233e+00,-4.436438036761487069e+00,-5.992502901218617062e-01
-2.889569781646051716e+00,-4.838873822329346375e+00,-5.984410333524718961e-01
-2.495842640579408744e+00,-5.187348793563954175e+00,-5.985248905788446150e-01
-1.966194658391685390e+00,-5.521218424123096824e+00,-5.993398112819560142e-01
-1.444210744985754635e+00,-5.845196401915411677e+00,-5.983911471862157772e-01
-9.157457790445939771e-01,-6.091986861624490324e+00,-5.976998117811926914e-01
-2.600748371164367523e-01,-6.313659566280539259e+00,-5.983053291952938890e-01
4.980977439106684113e-01,-6.458245330277111229e+00,-5.989170529506041563e-01
1.434320755817849236e+00,-6.513590191326784407e+00,-5.991111382041857114e-01
2.551648924923838546e+00,-6.507014298135688435e+00,-5.982764480266865581e-01
3.708352560229749795e+00,-6.299834183174231050e+00,-5.978708851275611469e-01
4.896390663155051115e+00,-5.849540720353955336e+00,-5.982658871407446899e-01
6.053421189253540113e+00,-5.104072056572793059e+00,-5.980347685281441894e-01
7.174461372019088401e+00,-4.014991497682282251e+00,-5.985991999827737775e-01
8.051786847398055613e+00,-2.722708700021961636e+00,-5.983082101903891559e-01
8.662962004149383333e+00,-1.227177083516714173e+00,-5.974978118307325836e-01
8.842348979054619917e+00,3.626491743827698899e-01,-5.979203246863425969e-01
8.610908414668877242e+00,1.912986433055506641e+00,-5.979120428552102684e-01
7.962419326740839409e+00,3.345974892024519143e+00,-5.975819663465227194e-01
7.074733365727213119e+00,4.638415903564435006e+00,-5.978219450691266701e-01
5.436386835034827669e+00,5.143172597109215261e+00,-2.496116122946924865e+00
4.252151665586214158e+00,5.848816707008384519e+00,-2.496383864807878883e+00
2.975891610031681012e+00,6.325857608152002598e+00,-2.496759465554370561e+00
1.623210648029025149e+00,6.564702082329660904e+00,-2.496369868241495649e+00
2.773198720722818700e-01,6.599706168676725326e+00,-2.496780756810002444e+00
-1.000969719213550935e+00,6.399258258068066141e+00,-2.496512538184077812e+00
-2.192854617223594538e+00,5.987162932687414063e+00,-2.496613663823168849e+00
-3.231858951935992152e+00,5.364162211873559905e+00,-2.495490120839663817e+00
-4.118360317167502060e+00,4.634330468045087414e+00,-2.496917211659020808e+00
-4.836961848286097876e+00,3.804481673863268743e+00,-2.497631198741879999e+00
-5.385033695504858997e+00,2.867424831930009521e+00,-2.495141026643324267e+00
-5.785886435017156160e+00,1.908034804948757213e+00,-2.495101535944571847e+00
-6.004657895332957018e+00,9.450022826162010059e-01,-2.495200370972235682e+00
-6.002127692997779818e+00,-3.662032599252951215e-02,-2.495572036223300039e+00
-5.830351225227652812e+00,-9.665383336897024336e-01,-2.496496692944961904e+00
-5.526059452093701196e+00,-1.778699428786221670e+00,-2.497256212545540865e+00
-5.126616084024454345e+00,-2.500892431870284760e+00,-2.497067771433756356e+00
-4.680936263659741137e+00,-3.049854767088950869e+00,-2.495410676707165543e+00
-4.217283766605211426e+00,-3.525328240118889234e+00,-2.495652371217098153e+00
-3.733944129835135683e+00,-3.952365754656316454e+00,-2.496946911814015291e+00
-3.290492753463355236e+00,-4.320395907428480342e+00,-2.495922322779741798e+00
-2.891566877840772154e+00,-4.741761513523849558e+00,-2.495109123056497680e+00
-2.461264684628241550e+00,-5.172650818795903049e+00,-2.496376880635016615e+00
-1.933852807700936705e+00,-5.493673598442885719e+00,-2.497135435659560088e+00
-1.412759804237759376e+00,-5.777719495455934329e+00,-2.496708956287747139e+00
-8.633659701672904419e-01,-5.988112666489208813e+00,-2.496246433025420597e+00
-2.269242027489994928e-01,-6.166700918808719400e+00,-2.495948304984676014e+00
5.137999373116868274e-01,-6.236003719699462877e+00,-2.495829240562303042e+00
1.356493411405898630e+00,-6.243811777508767591e+00,-2.495976862315840705e+00
2.364568651976949099e+00,-6.219285769747203929e+00,-2.495823446640921262e+00
3.448213851595641977e+00,-6.038736019751823392e+00,-2.496328783461733369e+00
4.539174809407367839e+00,-5.598220530998148092e+00,-2.496968573315784479e+00
5.593058793558843611e+00,-4.870816844395995382e+00,-2.496963793747731142e+00
6.539451787266889582e+00,-3.866179909042090301e+00,-2.496053649354358139e+00
7.360597883156255961e+00,-2.660116833239177137e+00,-2.495607368587559716e+00
7.977782801565235005e+00,-1.274025476361552389e+00,-2.496725536349614583e+00
8.099860999907164683e+00,1.747783506167168710e-01,-2.497278400115980013e+00
7.825806050960458116e+00,1.568637307083628141e+00,-2.496495781189342011e+00
7.270151407924955400e+00,2.898202266608405520e+00,-2.496113240887631868e+00
6.469183353608043419e+00,4.128960825551101443e+00,-2.496197884162366432e+00
4.942153010920770306e+00,4.492200996234985588e+00,-4.394333497199293781e+00
3.906970350421924643e+00,5.167403975045315789e+00,-4.394400015463689968e+00
2.718702975282912160e+00,5.648796037063339881e+00,-4.394613329642790944e+00
1.514843134141543368e+00,5.884231426189426628e+00,-4.394518930116912081e+00
3.496921449825257655e-01,5.893872864395556022e+00,-4.393564774100287451e+00
-7.743343168898422224e-01,5.737720295341873999e+00,-4.394770045234979605e+00
-1.915233590603041547e+00,5.414923615323645301e+00,-4.394422920538628929e+00
-2.957912325649007190e+00,4.909741005144978132e+00,-4.394490593644794885e+00
-3.802913843882157252e+00,4.281423401752654456e+00,-4.394893792150639911e+00
-4.507312537164268385e+00,3.532435795072170315e+00,-4.394958879931150086e+00
-5.061745806285307125e+00,2.701226319899421746e+00,-4.394347432399269060e+00
-5.458829891251070876e+00,1.819795293807220826e+00,-4.393486373844660342e+00
-5.699617884543059176e+00,9.203250974194474576e-01,-4.394372403488093326e+00
-5.731691021902347138e+00,1.125303029878299554e-02,-4.395162791687022619e+00
-5.639707580348630067e+00,-8.544856242438154670e-01,-4.394621930124404940e+00
-5.401436263799756610e+00,-1.640489005202515393e+00,-4.395161751724637078e+00
-5.067379438415435366e+00,-2.301701952959728459e+00,-4.395442611057601034e+00
-4.654523152868980773e+00,-2.903988252600553377e+00,-4.393888763404651954e+00
-4.186885819390949948e+00,-3.402081585925606610e+00,-4.394110587324652428e+00
-3.712702603793725409e+00,-3.832460976450908774e+00,-4.393938059817459774e+00
-3.283386266851951341e+00,-4.243301289418353051e+00,-4.393737876734977732e+00
-2.845191171530442098e+00,-4.674868929326702727e+00,-4.394738023831400220e+00
-2.412981669223662529e+00,-5.103418608206152562e+00,-4.395169257944580465e+00
-1.909430748295135372e+00,-5.424341887771046977e+00,-4.394525341947534081e+00
-1.368076254894315724e+00,-5.651877799144663150e+00,-4.393853004127418416e+00
-8.258192450893876435e-01,-5.802562427212055063e+00,-4.395083844794998029e+00
-1.970696998120884391e-01,-5.940326898175075421e+00,-4.395420071546179308e+00
5.146723310323586542e-01,-6.007636966993963767e+00,-4.394481587130670164e+00
1.298724490203023274e+00,-5.983280976884004509e+00,-4.393322758961256014e+00
2.186875369716769324e+00,-5.906686546498135293e+00,-4.393983202995016768e+00
3.128890769712037390e+00,-5.711426298876983054e+00,-4.394729699607053064e+00
4.178021374857586956e+00,-5.311153500177474562e+00,-4.395391968134099159e+00
5.139161673888304804e+00,-4.636809774490449954e+00,-4.396000301684694911e+00
5.952460344027216799e+00,-3.692112355604646901e+00,-4.395434706108949818e+00
6.647807568384781263e+00,-2.612757246206475870e+00,-4.394539698160539132e+00
7.140563840910776783e+00,-1.371301986672871287e+00,-4.395009984488702059e+00
7.238766927720224231e+00,-3.373948033005591540e-02,-4.394404151251727342e+00
7.036618597249467477e+00,1.232750946727658725e+00,-4.394493655494342121e+00
6.567119388844464112e+00,2.442680276066141243e+00,-4.395124781397835356e+00
5.859122118098632370e+00,3.558744651352447885e+00,-4.394882455386517783e+00
4.461601133325649116e+00,3.843454561598665720e+00,-6.293969321103737080e+00
3.556159555825091800e+00,4.495748071024244119e+00,-6.293003089876471279e+00
2.520704446869670434e+00,4.940950965080568302e+00,-6.293050035584007773e+00
1.453405187381341612e+00,5.158917496908216549e+00,-6.293141879316557663e+00
3.742439414224473793e-01,5.203758861962663573e+00,-6.292639773490479982e+00
-6.387114286275388242e-01,5.134998441092037069e+00,-6.292705757951647882e+00
-1.624091564450110159e+00,4.847845433023310058e+00,-6.293338312557358094e+00
-2.599387594736771057e+00,4.430538423736678055e+00,-6.292935062047683381e+00
-3.429720697679910835e+00,3.914964393477001980e+00,-6.292083984567226729e+00
-4.103208849099560851e+00,3.273402244923688809e+00,-6.292013711604327320e+00
-4.671485573254437362e+00,2.551698085934256177e+00,-6.293371777076200324e+00
-5.094701877521170097e+00,1.776507220614116367e+00,-6.293158090695019524e+00
-5.317496261580988204e+00,9.364025917531433318e-01,-6.292660499221244486e+00
-5.398197856392120464e+00,8.019906412687616282e-02,-6.291916411094241823e+00
-5.364429509046434674e+00,-7.313119852620122430e-01,-6.290748493786116669e+00
-5.170431044650166896e+00,-1.485801226006696396e+00,-6.292423472320235689e+00
-4.908711943057306293e+00,-2.174417986690845961e+00,-6.293792130378335514e+00
-4.540891994827111589e+00,-2.767263643839873666e+00,-6.292188898843034117e+00
-4.138823548719774870e+00,-3.310485501471558401e+00,-6.292343012194741014e+00
-3.723327213202343167e+00,-3.794465246769426869e+00,-6.292313474433113285e+00
-3.320326204113098978e+00,-4.269251701759393391e+00,-6.291986067514284464e+00
-2.844777343844248740e+00,-4.681058379249376955e+00,-6.292853233836628313e+00
-2.362118192783610127e+00,-5.042470182942828671e+00,-6.292649759500451800e+00
-1.852725345042097294e+00,-5.350901156342054321e+00,-6.292305470321219119e+00
-1.305454987022663049e+00,-5.521734783527061374e+00,-6.292625310975118680e+00
-7.669736576467611755e-01,-5.612799980830250668e+00,-6.292377431800508347e+00
-1.402242954985961632e-01,-5.718337778154954698e+00,-6.292004287211502067e+00
5.321855465870319879e-01,-5.729713212554841562e+00,-6.292561423587776481e+00
1.253916397889197398e+00,-5.708969171096560657e+00,-6.293076054775243122e+00
2.052131082704065079e+00,-5.592624866381054716e+00,-6.293231304329104603e+00
2.866441865153379176e+00,-5.378669160059313725e+00,-6.293134844925905469e+00
3.796298755662216529e+00,-4.982725586646569838e+00,-6.293161837308121065e+00
4.638296297129521406e+00,-4.360146294381429755e+00,-6.293287409847172498e+00
5.349736491095229418e+00,-3.508964684247885657e+00,-6.293043697388476687e+00
5.922554377324880548e+00,-2.529337427771364499e+00,-6.292843645223346272e+00
6.362409087551944786e+00,-1.463609899146107285e+00,-6.292642818044662079e+00
6.465724671947381097e+00,-2.703924749256396698e-01,-6.292271699076321667e+00
6.326382183140172089e+00,9.009660858876362699e-01,-6.292374788054111434e+00
5.896524988175932513e+00,1.985630347170140642e+00,-6.292477434149824411e+00
5.263814716424836782e+00,2.986492782395271828e+00,-6.293348566351727236e+00
3.970990172035230081e+00,3.168163114888047360e+00,-8.190462283036907820e+00
3.151881774185578244e+00,3.779681156275716880e+00,-8.190692746408897662e+00
2.260446058042305584e+00,4.186160271052747461e+00,-8.192234768327283589e+00
1.336272620416117718e+00,4.397241645055755654e+00,-8.191416704883867084e+00
4.100353971299470213e-01,4.505011839988483757e+00,-8.191246381441741775e+00
-5.099654094596042242e-01,4.515527769252060786e+00,-8.191303309928501974e+00
-1.393269454585840172e+00,4.288449468879797166e+00,-8.190720895454511208e+00
-2.236564480669582800e+00,3.955391577206722964e+00,-8.190746582208056736e+00
-3.029440951367912582e+00,3.538200507597457189e+00,-8.190179944356767550e+00
-3.681388727122271831e+00,2.986678651748323254e+00,-8.190530471255907941e+00
-4.234693281294510392e+00,2.375490754644684177e+00,-8.190661801963200261e+00
-4.641242080353393362e+00,1.678438270306889635e+00,-8.190897426378645818e+00
-4.855769435541755108e+00,8.980861965283279957e-01,-8.190735071644565934e+00
-4.974551612163668146e+00,1.013327968687762759e-01,-8.191256826241200883e+00
-4.973006855736447740e+00,-6.626545951994411432e-01,-8.191600492618885454e+00
-4.848407445466571986e+00,-1.393345895430099013e+00,-8.190233811423793142e+00
-4.627699723464006709e+00,-2.042435451229435817e+00,-8.190687992196613365e+00
-4.351036793844729189e+00,-2.645591959994071374e+00,-8.190933960534179548e+00
-4.101396953782012744e+00,-3.233100654775300953e+00,-8.190872097124307416e+00
-3.702408554447672806e+00,-3.732768444781220385e+00,-8.189548100903394356e+00
