-6.456770071920248100e+00,-8.610462466066051590e+00,1.094306923555591338e+00
-5.180258482907033724e+00,-9.861154817647268089e+00,1.094600850140181825e+00
-3.592315875273088821e+00,-1.094188680488866261e+01,1.094941830207624367e+00
-1.779044043636933914e+00,-1.171728881102560216e+01,1.094848562871690634e+00
1.896546668224619037e-01,-1.216828889410344772e+01,1.094598137240819113e+00
2.269764349356672817e+00,-1.220775327151401157e+01,1.094585258645748960e+00
4.379138081329694288e+00,-1.180344874123832177e+01,1.094596025381081583e+00
6.446789747163168549e+00,-1.096125316623021462e+01,1.094596496322553847e+00
8.370170573258993940e+00,-9.724221002217298349e+00,1.094397093480197203e+00
1.006218061832501220e+01,-8.118614180871364994e+00,1.094094519444652969e+00
1.140752210381536180e+01,-6.183843709877812067e+00,1.094714952823161003e+00
1.231784010944014263e+01,-4.021593500416289046e+00,1.094573986972413593e+00
1.278232475380350408e+01,-1.752152137640573315e+00,1.094153290985129479e+00
1.279163495565641284e+01,5.416301793729486613e-01,1.094645447006389549e+00
1.220070752853125562e+01,2.759369504682401608e+00,1.095078237407172805e+00
1.118804192420370036e+01,4.791570334762509376e+00,1.094732304591393257e+00
9.857506927005507791e+00,6.556915620060047800e+00,1.094843106258119869e+00
8.248741414726069365e+00,8.005436365007147614e+00,1.095126283106989007e+00
6.121854549405895796e+00,8.607179788996809577e+00,-9.900234643074038443e-01
4.475651520037861708e+00,9.323548376369517499e+00,-9.909625096210961104e-01
2.790567312242962394e+00,9.769149660323916962e+00,-9.897300889004363444e-01
1.151546078548015384e+00,9.875832011214118467e+00,-9.897635398004965834e-01
-3.692727720228725641e-01,9.683832970667740625e+00,-9.905169530343245210e-01
-1.778183425659526140e+00,9.230272924920583932e+00,-9.887516750342226768e-01
-2.992718881555979316e+00,8.637537837542456742e+00,-9.893053228716724989e-01
-4.058589911988742749e+00,7.943034064612932710e+00,-9.896891166722889821e-01
-5.013154580128836635e+00,7.114510129722970255e+00,-9.895165381314779962e-01
-5.760432953857014482e+00,6.297617651267465533e+00,-9.898400548132793020e-01
-6.400269755498844582e+00,5.478939423202158210e+00,-9.901580968567342822e-01
-6.993147883008395738e+00,4.657832242266144007e+00,-9.901363357321292247e-01
-7.521024110234096227e+00,3.759537082255234530e+00,-9.894631421910761171e-01
-7.964748042103235726e+00,2.814565963584705344e+00,-9.897333204915531590e-01
-8.333451707709782497e+00,1.844985085307349726e+00,-9.901344736468533636e-01
-8.631299484148165391e+00,8.078039927809966825e-01,-9.899373767740781149e-01
-8.820666753787362424e+00,-3.808786566167577936e-01,-9.909455685514503287e-01
-8.867728294347697826e+00,-1.647061588173208690e+00,-9.910790325366412024e-01
-8.747625669634549794e+00,-2.977093578111582151e+00,-9.898832343667465228e-01
-8.460174335959923297e+00,-4.270150332859665276e+00,-9.892630276310246940e-01
-7.950751054976210597e+00,-5.602477629468323173e+00,-9.905941731424616759e-01
-7.193271435344565035e+00,-6.986980450922191110e+00,-9.907739224445670789e-01
-6.223278596430152909e+00,-8.258548127110069359e+00,-9.898060416385189297e-01
-4.966115014770178249e+00,-9.438993050830029929e+00,-9.895806345249512637e-01
-3.452915800103507404e+00,-1.044977374378110824e+01,-9.900215160401386605e-01
-1.706379171955060947e+00,-1.117590689776923973e+01,-9.908831577114782796e-01
1.593779337285099462e-01,-1.158147911988991297e+01,-9.913847148477334947e-01
2.115832603479922192e+00,-1.158716814140665541e+01,-9.907677774066143694e-01
4.127946331443557604e+00,-1.117828887342496458e+01,-9.898419690122808312e-01
6.066522534126912447e+00,-1.038825836857803964e+01,-9.894183182214711936e-01
7.878437974971878255e+00,-9.211182851890406198e+00,-9.889596500759229025e-01
9.500648837920270040e+00,-7.710817503577978016e+00,-9.907230225015718483e-01
1.077598695888185532e+01,-5.842825951965763487e+00,-9.901921116839228487e-01
1.164832149507260084e+01,-3.793306779743616186e+00,-9.893258909172806259e-01
1.210139317519129065e+01,-1.627375554894508358e+00,-9.893979490617734740e-01
1.205967838220900923e+01,5.354474209304478372e-01,-9.894192529790686308e-01
1.148149949092251099e+01,2.630917184385462182e+00,-9.902507062616925371e-01
1.052456604850351773e+01,4.551651722306860215e+00,-9.909599335464353009e-01
9.264879224455039974e+00,6.222317839895305625e+00,-9.908452318016780502e-01
7.760902508736676531e+00,7.579619546583005629e+00,-9.900473480373912505e-01
5.754287973366600362e+00,8.149743963225581922e+00,-3.074050160671993659e+00
4.206496366942774401e+00,8.861714501177029746e+00,-3.075628929436390546e+00
2.634045792189969148e+00,9.317844188580950870e+00,-3.075167562161471135e+00
1.117693838230722436e+00,9.474528270510099048e+00,-3.074294487378455898e+00
-3.163648153725755474e-01,9.361211628772860394e+00,-3.075994963545906735e+00
-1.692319055234322134e+00,8.999023235690977174e+00,-3.076225010042644037e+00
-2.899168844085413532e+00,8.470571727087747860e+00,-3.073549766596865407e+00
-3.975559155056685778e+00,7.840313425537082104e+00,-3.075634089431068308e+00
-4.908112227722313037e+00,7.099790017634757255e+00,-3.076770059662113255e+00
-5.672140631680441025e+00,6.312403978800663396e+00,-3.074809495582978336e+00
-6.353675871584140822e+00,5.510275312430226613e+00,-3.074779545898037814e+00
-6.958120318079810573e+00,4.692278575849716304e+00,-3.074977366946245905e+00
-7.471492532384210961e+00,3.806466915033927201e+00,-3.075214813542568315e+00
-7.916129143270373092e+00,2.844654220837131930e+00,-3.075479748787462331e+00
-8.275999588464687307e+00,1.854139935129661465e+00,-3.076165319555820066e+00
-8.560953211802079466e+00,8.255455096229205036e-01,-3.077371812535905971e+00
-8.717039666849373702e+00,-3.226151622964861243e-01,-3.075969167107026170e+00
-8.726141799546971001e+00,-1.573757292818088072e+00,-3.074918754172446977e+00
-8.577133011891620029e+00,-2.865589862897972573e+00,-3.074692620085900607e+00
-8.217289674819161505e+00,-4.142945481434884059e+00,-3.075377889725216196e+00
-7.658947555508875737e+00,-5.419085054953723279e+00,-3.076059450394186268e+00
-6.880496524779177392e+00,-6.696074306522730168e+00,-3.075286944035292347e+00
-5.892862179379558363e+00,-7.878638356514938934e+00,-3.075356080017678018e+00
-4.695307692994246551e+00,-8.935163589283574126e+00,-3.076044832031381127e+00
-3.264059016540628910e+00,-9.846983771750686287e+00,-3.076074420123572128e+00
-1.624102874792078044e+00,-1.049341608124888836e+01,-3.075045746970294314e+00
1.442785550858496357e-01,-1.086314780216272169e+01,-3.074905647943623421e+00
1.984280175372394428e+00,-1.084293214321411547e+01,-3.074831350379131134e+00
3.827161687787155486e+00,-1.048896748641890042e+01,-3.074088024157550780e+00
5.657243677331595499e+00,-9.749390231373865845e+00,-3.075060290957610132e+00
7.356646255743596541e+00,-8.655365039084644607e+00,-3.076104624734267823e+00
8.886445802458169396e+00,-7.245342858969804567e+00,-3.074700566154746184e+00
1.009818064657503989e+01,-5.477624041093745788e+00,-3.074877534538265067e+00
1.093691218764572604e+01,-3.549581412719443829e+00,-3.075674306184487783e+00
1.136357317002475931e+01,-1.516288824536100588e+00,-3.075435437327475263e+00
1.125569389739474957e+01,5.395753285376232444e-01,-3.074433415042173490e+00
1.071961133489689644e+01,2.520305472955532533e+00,-3.074254091239272846e+00
9.826105096396567262e+00,4.311725312761147677e+00,-3.075355875657490135e+00
8.643945819457785618e+00,5.877574598650597615e+00,-3.075294586938058572e+00
7.258985022947936905e+00,7.169090038450224966e+00,-3.074122841346483614e+00
5.298647354025016298e+00,7.691910561943597457e+00,-5.161369461737434605e+00
3.874072759392537257e+00,8.386200208057831063e+00,-5.161237724626909440e+00
2.443755480277693515e+00,8.829629549068899408e+00,-5.160544388075535061e+00
1.054932117366412792e+00,9.019775912905485526e+00,-5.160383766054445154e+00
-2.873943687335065444e-01,8.987070361019176445e+00,-5.160501351837716300e+00
-1.601857476297924965e+00,8.700412234794994149e+00,-5.159905830625901579e+00
-2.788437142830666904e+00,8.246045910427211467e+00,-5.159805085927057888e+00
-3.822211124780353853e+00,7.696751183849296574e+00,-5.160029171767996026e+00
-4.761527559181756075e+00,7.028584807898881515e+00,-5.160238659007131190e+00
-5.543915708074561799e+00,6.294925273879755423e+00,-5.159938343444719244e+00
-6.241391104193797723e+00,5.510871554121584026e+00,-5.160183276532837482e+00
-6.840098340781072039e+00,4.690815691313833469e+00,-5.160311822125325243e+00
-7.359932516709110750e+00,3.808210654855805899e+00,-5.161241928905327292e+00
-7.783444318925937466e+00,2.855230036843500852e+00,-5.161327917124885367e+00
-8.119054012092805195e+00,1.883516908095419717e+00,-5.159836205453275149e+00
-8.415400216802460420e+00,8.462069129169532689e-01,-5.159777653082846527e+00
-8.542915111668143879e+00,-3.014714646555693989e-01,-5.160974867154785706e+00
-8.512307634972531289e+00,-1.481796687659833855e+00,-5.159988194811613305e+00
-8.346650346995710734e+00,-2.723978768118018756e+00,-5.159931408132015562e+00
-7.967500713514441557e+00,-3.964081566411424618e+00,-5.160459928717737732e+00
-7.370765417514956397e+00,-5.163611054263036237e+00,-5.159447920161510659e+00
-6.582260808408348929e+00,-6.341469393491720119e+00,-5.159644994448333577e+00
-5.585355056946489150e+00,-7.421445586622722246e+00,-5.160501997759495474e+00
-4.398129681599696639e+00,-8.364278064796797807e+00,-5.161079248094242899e+00
-3.013989924830809741e+00,-9.131992502742205531e+00,-5.160892123928740638e+00
-1.526047726676276417e+00,-9.705045346088880365e+00,-5.161120851678301591e+00
1.062131561451817863e-01,-1.002678913950608930e+01,-5.160007136170911224e+00
1.818588924730205614e+00,-1.000318490568851182e+01,-5.159103899760929757e+00
3.538308590316243230e+00,-9.686568924112886947e+00,-5.159856088225047266e+00
5.198053870764701045e+00,-9.031152975446200770e+00,-5.161276245108328276e+00
6.779868735871318108e+00,-8.023464164725563563e+00,-5.161279954414728088e+00
8.225829633835422428e+00,-6.689412716280493498e+00,-5.160668933058635943e+00
9.347565907683978992e+00,-5.060915957204890070e+00,-5.160773757618438928e+00
1.011729889066912236e+01,-3.268527285664263538e+00,-5.160988195142736323e+00
1.048794403359494432e+01,-1.387856638847877910e+00,-5.161423961552673134e+00
1.037925821940144111e+01,5.488311267219191381e-01,-5.161244273864988408e+00
9.878183771172261984e+00,2.404161510226311194e+00,-5.159704795197534111e+00
9.050590202137060558e+00,4.071984928331660925e+00,-5.160574653265010525e+00
7.966938306622862065e+00,5.516099554211182365e+00,-5.162019025371632708e+00
6.703766304000030374e+00,6.727747341680174742e+00,-5.161882315345231120e+00
4.853226327473653789e+00,7.173939470596637946e+00,-7.244973834023319625e+00
3.609951433710672841e+00,7.853182293341529174e+00,-7.245352308198095059e+00
2.327413419749660317e+00,8.296252788835506209e+00,-7.245340344739492622e+00
1.033295875901725225e+00,8.531902941606301027e+00,-7.245015156748193519e+00
-2.154333494466451615e-01,8.565583166663541803e+00,-7.245501161006821178e+00
-1.459423654466412312e+00,8.350570869223950865e+00,-7.245397236259480955e+00
-2.620321251944955243e+00,7.992819577460940295e+00,-7.246664854223119789e+00
-3.639794906983025768e+00,7.505748815708257915e+00,-7.246489789615580435e+00
-4.568596773172927783e+00,6.899573285759558416e+00,-7.245443682037475241e+00
-5.383663515782357578e+00,6.241878632876842303e+00,-7.245037591220201634e+00
-6.086877583508877976e+00,5.471235183998446772e+00,-7.245484017676531607e+00
-6.665529292470513845e+00,4.627237992086389085e+00,-7.245310511781960727e+00
-7.184577539337142937e+00,3.752770626748250571e+00,-7.245501857963446923e+00
-7.567893303967139218e+00,2.829304849554312717e+00,-7.245341453047011271e+00
-7.879216940501315491e+00,1.856087746932052918e+00,-7.245888223626329783e+00
-8.183939957233739904e+00,8.617739620529423217e-01,-7.246177735711415657e+00
-8.292335610150487923e+00,-2.333674990145562234e-01,-7.245900681209985095e+00
-8.230059290543847439e+00,-1.380793643841720542e+00,-7.245184690555101170e+00
-8.056903572904623445e+00,-2.530829311325550002e+00,-7.245117514798337766e+00
-7.669053986368203013e+00,-3.723151072229400782e+00,-7.245407462854143610e+00
-7.058776641758894854e+00,-4.825550262501938192e+00,-7.245156941935696260e+00
-6.288374165707822705e+00,-5.900517646457253740e+00,-7.245758341854905638e+00
-5.314083822878127528e+00,-6.879765421628320610e+00,-7.245158896268172555e+00
-4.176695783068399948e+00,-7.708141370710655416e+00,-7.244598971329126336e+00
-2.878273599735230448e+00,-8.364296691763872360e+00,-7.245159134676286250e+00
-1.435577988400988714e+00,-8.832285749993951995e+00,-7.245219427932937606e+00
5.050835368627026867e-02,-9.106284756510019562e+00,-7.245314646806154002e+00
1.601660739426967961e+00,-9.097444699196994833e+00,-7.245258937370230079e+00
3.183218168955014971e+00,-8.811688815932900098e+00,-7.244428989709854605e+00
4.710076944243109409e+00,-8.215590344424747116e+00,-7.244289534448383527e+00
6.161447156405481351e+00,-7.300456503824059418e+00,-7.245615433958739082e+00
7.437709909893807314e+00,-6.080991683029116857e+00,-7.245675807692184556e+00
8.458275454186308551e+00,-4.578925103150417897e+00,-7.245237135071132428e+00
9.153489456817224479e+00,-2.964040525592188224e+00,-7.245795693506458690e+00
9.462624617362820345e+00,-1.229553587716383456e+00,-7.246223785330277778e+00
9.384654300310034003e+00,5.698725073470327640e-01,-7.244793231671268430e+00
8.929613113723856799e+00,2.259530797423892956e+00,-7.244787786881839331e+00
8.181536874723231989e+00,3.776285728137381170e+00,-7.245546545613195555e+00
7.190071770880403612e+00,5.140039239503773061e+00,-7.245779706182898572e+00
6.048139201534503684e+00,6.277543739021977487e+00,-7.245323025746822410e+00
4.480656549180144665e+00,6.591363665133708416e+00,-9.330460844385726205e+00
3.369923948860159335e+00,7.287229812984753252e+00,-9.329510291017031776e+00
2.197452485428168512e+00,7.729016673392461456e+00,-9.329854586247790849e+00
1.013824732403566076e+00,8.004358360647902515e+00,-9.330555123752244384e+00
-1.463975674190460818e-01,8.114770933973314726e+00,-9.331055982597790788e+00
-1.323841409651145273e+00,7.949009453526492130e+00,-9.330774661020891259e+00
-2.450091489003372480e+00,7.682337844505656932e+00,-9.330846777817230375e+00
-3.440679624205642106e+00,7.267195711014593940e+00,-9.331120986050970956e+00
-4.356697131568367354e+00,6.737190650195246100e+00,-9.330044244676658494e+00
-5.208063233950272597e+00,6.144771706678669787e+00,-9.330412552507802104e+00
-5.921361287110144644e+00,5.402959436378334424e+00,-9.331506563625309170e+00
-6.487605651972987886e+00,4.555538046106289762e+00,-9.330262335299032372e+00
-6.961473075093528529e+00,3.680422460677364338e+00,-9.330718442523872724e+00
-7.305739962540783949e+00,2.773473600309336540e+00,-9.330269608291471783e+00
-7.593701607197441028e+00,1.834088070503217205e+00,-9.329346765060877900e+00
-7.866789798246790255e+00,8.605548944378794696e-01,-9.330101341105120127e+00
-7.939861975804138439e+00,-1.748652285032127329e-01,-9.330658215284666213e+00
-7.884375871663720226e+00,-1.226841346397525179e+00,-9.330517906222238977e+00
-7.697437949744513119e+00,-2.306113835232229015e+00,-9.330383358031230756e+00
-7.314726570971053832e+00,-3.417211482253151633e+00,-9.331041560212769426e+00
-6.686031806104911546e+00,-4.439322576072274984e+00,-9.330197356956682953e+00
-5.957957596516850529e+00,-5.395262681246123293e+00,-9.330390825517669739e+00
-5.047417776808344136e+00,-6.263786274731009129e+00,-9.330936135325927694e+00
-3.980302149112791454e+00,-6.997288038225000228e+00,-9.329825119914021414e+00
-2.775279749370395344e+00,-7.547649611618780341e+00,-9.330152719185806021e+00
-1.469260174090022408e+00,-7.955579372812583649e+00,-9.331029333645338042e+00
-1.023325099488376910e-01,-8.184381063676958945e+00,-9.330242504063765097e+00
1.326442071449973836e+00,-8.165859629980898760e+00,-9.329609304290698901e+00
2.778362469504893184e+00,-7.894493925939721990e+00,-9.330543915001038968e+00
4.171645741580904954e+00,-7.331031784798524242e+00,-9.330992841752493661e+00
5.458675167571040099e+00,-6.499383528070067584e+00,-9.329813530553133560e+00
6.565574892627815906e+00,-5.392148346816697746e+00,-9.330069696627049325e+00
7.463796510134049100e+00,-4.061340884120247630e+00,-9.330342921582165161e+00
8.080205104592682375e+00,-2.623193114920942648e+00,-9.330205374896932469e+00
8.352155866729388478e+00,-1.050493842996570892e+00,-9.330420006846765091e+00
8.300395285874305529e+00,5.976088887379321646e-01,-9.330505075379075919e+00
7.908989955188046928e+00,2.091069847746474419e+00,-9.330104772087935316e+00
7.259270433136289391e+00,3.466903049368231571e+00,-9.330566990559477247e+00
6.442218610436355242e+00,4.678943855914672767e+00,-9.331342981924601432e+00
5.503139816032285303e+00,5.729559588363511757e+00,-9.331325309816714153e+00
4.025253756527433779e+00,6.018237542024555076e+00,-1.141581591675008056e+01
3.073670341435359887e+00,6.685576371897674619e+00,-1.141547368405964313e+01
2.042858757997299435e+00,7.135608129698292501e+00,-1.141504820684209953e+01
9.569831688122503177e-01,7.444432181824804040e+00,-1.141486290098903567e+01
-1.098087157706302275e-01,7.622611411718859031e+00,-1.141515223847086347e+01
-1.212119077850079885e+00,7.494713607101597397e+00,-1.141488679997848799e+01
-2.265699081542121185e+00,7.310947755526207459e+00,-1.141609401041541894e+01
-3.227008853426142743e+00,6.971520167530532497e+00,-1.141545695432391305e+01
-4.115370294343467350e+00,6.500332564911364130e+00,-1.141471285914754041e+01
-4.975460427184223988e+00,5.974378263293226077e+00,-1.141545376414840973e+01
-5.721645658652025901e+00,5.285090522910027566e+00,-1.141429152963577742e+01
-6.266878531511000716e+00,4.447813706895756170e+00,-1.141535328427936768e+01
-6.713523045055794114e+00,3.585930304892870790e+00,-1.141534219841037512e+01
-7.022556498059507213e+00,2.701680777043934611e+00,-1.141491433695438751e+01
-7.285492571801467143e+00,1.802039881367534679e+00,-1.141481132762484840e+01
-7.482988135853346989e+00,8.549276998979575826e-01,-1.141491020658723521e+01
-7.493552725969406580e+00,-9.083452682846460124e-02,-1.141627059041834791e+01
-7.443421594798412144e+00,-1.077253835148819228e+00,-1.141635474904567182e+01
-7.283147702879804619e+00,-2.065092779367436293e+00,-1.141621894571457574e+01
-6.882548611351328560e+00,-3.087212769351792563e+00,-1.141556403783020635e+01
-6.274549041780376868e+00,-3.993103941465183215e+00,-1.141473203606116016e+01
-5.593566993600553872e+00,-4.842738666499188938e+00,-1.141480836570027080e+01
-4.734422718764375482e+00,-5.606720454704223755e+00,-1.141572295192123576e+01
-3.758867456197497958e+00,-6.226178427591318787e+00,-1.141558674280208763e+01
-2.680092083413102344e+00,-6.690500710914270677e+00,-1.141525598195562097e+01
-1.515030200387479375e+00,-7.042902168417281672e+00,-1.141536367976359223e+01
-2.922249379077550557e-01,-7.216868766028398774e+00,-1.141545015250821393e+01
1.013219559083175625e+00,-7.172697751201883243e+00,-1.141474778514291621e+01
2.302640425197592045e+00,-6.909153394341143617e+00,-1.141557156305183263e+01
3.539742064087991302e+00,-6.384813332936162489e+00,-1.141609806469367072e+01
4.679956012619996386e+00,-5.604238218391427218e+00,-1.141455679986344585e+01
5.609682277056128541e+00,-4.646619206553602943e+00,-1.141583812679241206e+01
6.405855787529041834e+00,-3.514462573300741077e+00,-1.141551434501430684e+01
6.959842254639897696e+00,-2.260627706734538833e+00,-1.141456747719132103e+01
7.189605417186796466e+00,-8.757738235739027655e-01,-1.141441177649134708e+01
7.142112970840663877e+00,5.827101637000564605e-01,-1.141528497643632001e+01
6.831648623413480337e+00,1.898208833420262032e+00,-1.141560240792168734e+01
6.320615435541183658e+00,3.118687614297419586e+00,-1.141543585758018686e+01
5.680283603906628898e+00,4.226181078196541208e+00,-1.141594042860146807e+01
4.903929692050177813e+00,5.192147425099055802e+00,-1.141621556996406461e+01
3.473043930657458311e+00,5.422546970856942927e+00,-1.350026705034934338e+01
2.663570491795463901e+00,6.048202752286308659e+00,-1.350065967994623506e+01
1.769646900985509363e+00,6.465426844511341642e+00,-1.350067312575510847e+01
8.273899856663724517e-01,6.776393191185015041e+00,-1.350016116563320168e+01
-1.218631221216223137e-01,7.007729269169637121e+00,-1.350059237858975258e+01
-1.131449556689026359e+00,6.954426883683821892e+00,-1.349976788730179500e+01
-2.099695867230879642e+00,6.801321494970563819e+00,-1.349987960809786536e+01
-2.978987362718451770e+00,6.536584620612563512e+00,-1.350031821848959090e+01
-3.804303432364619209e+00,6.139492020699631958e+00,-1.350026470793724620e+01
-4.638282441869202799e+00,5.671218605487048592e+00,-1.350031388901236795e+01
-5.393997573255012057e+00,5.054492068453144249e+00,-1.349994428599264218e+01
-5.949332692073128648e+00,4.270646274142710475e+00,-1.349957947630367272e+01
-6.381182686193179521e+00,3.470518417965418934e+00,-1.350010890188744384e+01
-6.668763821972528483e+00,2.623575645166583037e+00,-1.350079013419007623e+01
-6.914753892974650817e+00,1.751632846490342788e+00,-1.350007308491272973e+01
-7.016817293648828446e+00,8.658853806034161327e-01,-1.349912860204278253e+01
-6.969854717641818631e+00,-2.116131416593935999e-02,-1.350012844208796281e+01
-6.950553775243996313e+00,-9.090672424360060067e-01,-1.349965985235203902e+01
-6.790702175011640307e+00,-1.812824684159121347e+00,-1.349956031702805070e+01
-6.379461773066447350e+00,-2.723051986391603840e+00,-1.350049679650272516e+01
-5.793846459327660625e+00,-3.519531086869694292e+00,-1.350012223105130538e+01
-5.168460078838481131e+00,-4.257285877648369521e+00,-1.349971524544525181e+01
-4.386501191011562995e+00,-4.898527046299458121e+00,-1.350072933517251883e+01
-3.491500703566403629e+00,-5.414365855264607674e+00,-1.350049741891403521e+01
-2.544437798613107482e+00,-5.788648915366712444e+00,-1.350009789930752113e+01
-1.509729345064652062e+00,-6.045655675990902367e+00,-1.350009161321621498e+01
-4.301107681487660317e-01,-6.143956447019974121e+00,-1.350060589438758640e+01
6.774164796897517160e-01,-6.094761310679619903e+00,-1.350098859005247398e+01
1.795141218467204425e+00,-5.834754064297790421e+00,-1.350038330805949727e+01
2.850781431827942303e+00,-5.362310603665921604e+00,-1.349972118678119770e+01
3.815028751573536159e+00,-4.667789230685882806e+00,-1.350025266759865517e+01
4.577552935581768345e+00,-3.853880429980461653e+00,-1.350003364299459996e+01
5.260917214221420224e+00,-2.913075260386032816e+00,-1.349923615329349502e+01
5.769973951576599980e+00,-1.853426991329253815e+00,-1.349965553943511409e+01
5.962283543725543922e+00,-6.684810840372877871e-01,-1.350070957732062027e+01
5.903755407863764404e+00,5.836302668286551532e-01,-1.350053613480491244e+01
5.669121185102315330e+00,1.726634090947442246e+00,-1.349939283211754848e+01
5.313234601423383552e+00,2.788905227164427902e+00,-1.350037191808634418e+01
4.828682295382152212e+00,3.789468259787981630e+00,-1.350179301090194883e+01
4.205879661413461257e+00,4.660213622266827116e+00,-1.350123278497495960e+01
2.798188781959524363e+00,4.733125345646014281e+00,-1.558521477796407240e+01
2.137163950179224337e+00,5.286274627309383689e+00,-1.558558895259503174e+01
1.384100956631625357e+00,5.660205329096847926e+00,-1.558587136048247501e+01
5.955441898339517426e-01,5.936844883674113227e+00,-1.558573502757944063e+01
-2.051158121644588439e-01,6.188365888297756356e+00,-1.558578008165372175e+01
-1.078881966180978091e+00,6.211775229672718446e+00,-1.558421167595315815e+01
-1.921331467247051616e+00,6.096521108619978868e+00,-1.558469534198116691e+01
-2.682173781645833088e+00,5.885292692583311336e+00,-1.558520383798576248e+01
-3.439287661950763297e+00,5.566022094004808629e+00,-1.558487235554822803e+01
-4.197925886302421361e+00,5.180259610080851118e+00,-1.558478916005903336e+01
-4.928679948841062419e+00,4.659719710358064759e+00,-1.558508777027257430e+01
-5.461246068466249604e+00,3.972344747870265813e+00,-1.558574873927048898e+01
-5.882594434992732602e+00,3.248314790383460160e+00,-1.558560020697793469e+01
-6.142814385344753880e+00,2.479011423067080777e+00,-1.558604465747297674e+01
-6.389826054389551757e+00,1.680141737473636931e+00,-1.558572668158482877e+01
-6.392032582087464831e+00,8.563839063167971721e-01,-1.558428320491103669e+01
-6.329601234018404909e+00,7.934643773973049097e-02,-1.558475947808327966e+01
-6.323869630554066035e+00,-7.236988899501988204e-01,-1.558440228351076051e+01
-6.152977816988268955e+00,-1.521920988818779907e+00,-1.558394938025126386e+01
-5.754100281193228028e+00,-2.291141659537669018e+00,-1.558580040818277723e+01
-5.219896916795135233e+00,-2.956099622638803659e+00,-1.558602773919037965e+01
-4.664724806246899114e+00,-3.571492620536372176e+00,-1.558455005587436837e+01
-3.964261317873442714e+00,-4.096155503748765803e+00,-1.558554313339756980e+01
-3.182146433353435278e+00,-4.497115290894281969e+00,-1.558457915145208084e+01
-2.340023225463736978e+00,-4.767807706853259830e+00,-1.558355881295579692e+01
-1.480675405524870758e+00,-4.927645110196706035e+00,-1.558453782047035041e+01
-5.984213523888989306e-01,-4.976057914911342195e+00,-1.558525880186278378e+01
3.102592899387504044e-01,-4.902666275337800528e+00,-1.558517814426748949e+01
1.210275677864462551e+00,-4.690971355766517803e+00,-1.558476942229157736e+01
2.092079206205774700e+00,-4.272186592331232546e+00,-1.558513119102718925e+01
2.883219390987511233e+00,-3.717396756965908988e+00,-1.558551206646297338e+01
3.515819854200473493e+00,-3.061483762942995845e+00,-1.558518650866222544e+01
4.069085882500341533e+00,-2.291814644081888730e+00,-1.558508980559090951e+01
4.496752630744508039e+00,-1.419342450870379357e+00,-1.558542732388572993e+01
4.694745638735907889e+00,-4.330400274921181736e-01,-1.558543201350742535e+01
4.603481650240018652e+00,5.973781546530274600e-01,-1.558462519865126339e+01
4.430471295926438735e+00,1.539592721383443052e+00,-1.558552007831215036e+01
4.219212098731186522e+00,2.443198597477994838e+00,-1.558616886042098670e+01
3.883868161261247565e+00,3.301078417170154822e+00,-1.558597861638614823e+01
3.393033708995456976e+00,4.070079992481202780e+00,-1.558554850202909314e+01
1.971762228280102169e+00,3.915068193316895595e+00,-1.767030419882825498e+01
1.467257258752979077e+00,4.369865685877558192e+00,-1.767030259892163357e+01
8.928454152600528992e-01,4.674548539802566793e+00,-1.767071402412404524e+01
2.644568933685591539e-01,4.924492395165967373e+00,-1.767065033606279911e+01
-3.749292960414507547e-01,5.152870383385508291e+00,-1.767087754716868986e+01
-1.076246834407852404e+00,5.205763765800157650e+00,-1.767139055018328264e+01
-1.760611038717616150e+00,5.152363363708697186e+00,-1.767039993806589493e+01
-2.373010466015536224e+00,5.002553269275678893e+00,-1.767090472366760778e+01
-3.002382571649718557e+00,4.772185175180363004e+00,-1.767034502360054660e+01
-3.649130180739442508e+00,4.460139962824295701e+00,-1.766970469205782734e+01
-4.298969509834037694e+00,4.055165468251127336e+00,-1.767062258500101990e+01
-4.780979309403290856e+00,3.500410379277808737e+00,-1.767024784652372560e+01
-5.140038258771936874e+00,2.891773088857387819e+00,-1.766967028291015041e+01
-5.353369163232299499e+00,2.233009340330419867e+00,-1.767004809761664674e+01
-5.576057496290136584e+00,1.550080447620814095e+00,-1.767044085098521933e+01
-5.545140368549956733e+00,8.502121209211010999e-01,-1.767009921745374967e+01
-5.489325095748099237e+00,1.891468736126769024e-01,-1.766978559923213865e+01
-5.488968200049606061e+00,-4.890766787132970750e-01,-1.766964611449011002e+01
-5.320529193173965332e+00,-1.133601961132139957e+00,-1.766920486410918301e+01
-4.965857773521565655e+00,-1.756252371458241868e+00,-1.767001781368983160e+01
-4.508999390997296075e+00,-2.283284204269688811e+00,-1.767086094494346327e+01
-4.045702815010463027e+00,-2.761863957246793788e+00,-1.767022342307915750e+01
-3.459051583228822224e+00,-3.153022546952154226e+00,-1.767051830573666749e+01
-2.796714157424416758e+00,-3.431854355141072510e+00,-1.767062291586303147e+01
-2.130187220666359682e+00,-3.618966977266165230e+00,-1.766977710647055133e+01
-1.460040146177772336e+00,-3.714901479861474343e+00,-1.766976336275980231e+01
-7.779824285582672694e-01,-3.725266396423557946e+00,-1.767047687438644132e+01
-9.802459360025328472e-02,-3.638348265296071027e+00,-1.766918700969185707e+01
6.181405206617103243e-01,-3.466578108193214103e+00,-1.766953382784010174e+01
1.308726255893032375e+00,-3.154890202769339069e+00,-1.767059645219660169e+01
1.921469296276171246e+00,-2.738611882939126385e+00,-1.766960449532512101e+01
2.436556591005530681e+00,-2.237944055497676388e+00,-1.767056519554779115e+01
2.862774443494327414e+00,-1.648409046209615481e+00,-1.767140261207285334e+01
3.199284055198072352e+00,-9.549571311123076223e-01,-1.767048850860130571e+01
3.353639559362401101e+00,-1.774261468153450760e-01,-1.766953280417354222e+01
3.226708048956414832e+00,6.104709957151271960e-01,-1.766964405434034191e+01
3.117506527388392623e+00,1.339723720969773435e+00,-1.766951560013764677e+01
3.009804052639046823e+00,2.066229605160502469e+00,-1.767073913416811592e+01
2.800788561159593737e+00,2.765780330462100700e+00,-1.767134381436651935e+01
2.434427956809209093e+00,3.375644762724728132e+00,-1.767084062033996972e+01
9.131471639592241285e-01,2.889874591240463086e+00,-1.975525758226715567e+01
5.716239024506635236e-01,3.197406666473416870e+00,-1.975518018064154546e+01
2.199353118407865182e-01,3.418100999462769352e+00,-1.975501801034292271e+01
-1.909132356543169484e-01,3.619190048947188654e+00,-1.975517255879579892e+01
-6.377121850984007745e-01,3.791483547730987169e+00,-1.975499943465356623e+01
-1.121096795815865965e+00,3.855283787367877579e+00,-1.975511033835894281e+01
-1.591394644114481727e+00,3.864717212908710398e+00,-1.975489231415810565e+01
-2.009943964364136804e+00,3.788690456976765208e+00,-1.975446835070701468e+01
-2.458028201650896527e+00,3.652221427194766168e+00,-1.975485938480964165e+01
-2.936777750206871040e+00,3.438528159585981570e+00,-1.975459900170927341e+01
-3.429035335201795043e+00,3.145338631981810629e+00,-1.975548703145773999e+01
-3.814489359897405230e+00,2.770511549493128278e+00,-1.975489072715339134e+01
-4.029364271431616906e+00,2.313240550602146506e+00,-1.975421559881559119e+01
-4.199792868990622985e+00,1.835226905186714941e+00,-1.975510650179957395e+01
-4.393601394242375946e+00,1.344255513770103772e+00,-1.975552687562844056e+01
-4.342223873464948092e+00,8.441489245474131931e-01,-1.975555957638468385e+01
-4.327983197054132702e+00,3.415513154711065646e-01,-1.975524732165871100e+01
-4.315673546063425903e+00,-1.600886961305020839e-01,-1.975513070443214758e+01
-4.169514077558236664e+00,-6.019981192853216534e-01,-1.975506128959203167e+01
-3.910232531355539276e+00,-1.026049870252660590e+00,-1.975486635522227274e+01
-3.578244882775075020e+00,-1.409443331061147830e+00,-1.975541835152004566e+01
-3.236167178160413549e+00,-1.722524895703239967e+00,-1.975526536799141297e+01
-2.793746010120027989e+00,-1.972822850459563959e+00,-1.975516069814482378e+01
-2.309383619191673453e+00,-2.128950838080549968e+00,-1.975496782104200477e+01
-1.879508135095579124e+00,-2.235895675972937813e+00,-1.975544654559715951e+01
-1.425287410475510219e+00,-2.295161913915901852e+00,-1.975550865961217184e+01
-9.682961338831963527e-01,-2.278028862156021184e+00,-1.975495404846381575e+01
-5.151849627158039402e-01,-2.177695159216173959e+00,-1.975455413045458286e+01
-2.552539568218037402e-02,-2.083799511936253346e+00,-1.975528425439715718e+01
4.396261266049599215e-01,-1.897254139527123629e+00,-1.975584463968003490e+01
8.519750636549878742e-01,-1.610324909037077923e+00,-1.975502004372772191e+01
1.220758838231384313e+00,-1.282780424838195099e+00,-1.975515261904187980e+01
1.476969416156677095e+00,-8.790408415161816702e-01,-1.975546946962861838e+01
1.733805454088054532e+00,-4.197104598351721894e-01,-1.975554637165495464e+01
1.849633006567849680e+00,1.204431804957655505e-01,-1.975599681621921277e+01
1.672232506883748471e+00,6.454276216312193615e-01,-1.975537767261822708e+01
1.573591900113367803e+00,1.103092933263723818e+00,-1.975519588010694605e+01
1.567675824937691642e+00,1.604955920616593978e+00,-1.975552056603766715e+01
1.467920198352132166e+00,2.098968260576595135e+00,-1.975534508972650372e+01
1.223970677912168181e+00,2.522538321633799985e+00,-1.975522277695516138e+01
-1.405030395252071074e+00,7.676545303155111188e-01,-2.184021958714680167e+01
3.500414288301840759e+00,8.775830552949615893e+00,1.985953359687450259e+01
1.771558056556279181e+00,8.719145877275382261e+00,1.985953361718924626e+01
2.363410649017947396e-01,8.338562376164246004e+00,1.985953354174597862e+01
-1.074559434826056759e+00,7.692918534132891395e+00,1.985953349822022673e+01
-2.103210147567702748e+00,6.865688820241560464e+00,1.985953342997446924e+01
-2.847392140166585595e+00,5.950986960326247299e+00,1.985953343434042040e+01
-3.343092477458703193e+00,5.038765326753476437e+00,1.985953346671332653e+01
-3.617308780350169783e+00,4.178562958149674600e+00,1.985953350149844709e+01
-3.710016082029981010e+00,3.410990575326703134e+00,1.985953347678456993e+01
-3.669029998152413263e+00,2.770011777353611038e+00,1.985953344129943687e+01
-3.594244642567870685e+00,2.300044061266743878e+00,1.985953341219803292e+01
-3.586332610382131580e+00,1.978250039714665620e+00,1.985953344534112119e+01
-3.693789587414225473e+00,1.723917817711514866e+00,1.985953340835236958e+01
-3.887244208615190377e+00,1.457139766306062123e+00,1.985953345234132073e+01
-4.126514771557376449e+00,1.120086032840875045e+00,1.985953349868621842e+01
-4.354729714341861069e+00,6.975481121695801257e-01,1.985953351689211033e+01
-4.545961186420217182e+00,2.066184428154145269e-01,1.985953349676654511e+01
-4.716913379414016561e+00,-3.896009593005131943e-01,1.985953344982148039e+01
-4.847623489952596287e+00,-1.112885287934163747e+00,1.985953339158253783e+01
-4.869097105548068960e+00,-1.974686307237233818e+00,1.985953334364090850e+01
-4.731345510503134122e+00,-2.942264471297798778e+00,1.985953336136387293e+01
-4.390211238366803492e+00,-3.966786846252683851e+00,1.985953339956454045e+01
-3.817807067224918249e+00,-5.002966006706728308e+00,1.985953336217463416e+01
-2.991772328601129516e+00,-5.990495833606726883e+00,1.985953335837263012e+01
-1.923511153199022772e+00,-6.861075643669833468e+00,1.985953334633450140e+01
-6.417611389448917292e-01,-7.543986675764763561e+00,1.985953333549901245e+01
8.425745234205960221e-01,-8.013175315219802641e+00,1.985953341761574009e+01
2.508682641262801827e+00,-8.229427295328070713e+00,1.985953345016034177e+01
4.353926443432165172e+00,-8.144070233510761980e+00,1.985953341569585007e+01
6.251020147212818401e+00,-7.659790933504176280e+00,1.985953344987120062e+01
8.061469754647299979e+00,-6.701221062160348296e+00,1.985953350394170158e+01
9.580743179584819913e+00,-5.273026539839721138e+00,1.985953350856967248e+01
1.064486663822916412e+01,-3.479839538933149790e+00,1.985953346261381114e+01
1.118364481164170599e+01,-1.435073517643133734e+00,1.985953345449517826e+01
1.119406182419393581e+01,7.082298624088607664e-01,1.985953343843027596e+01
1.071293661864159041e+01,2.797889017804776834e+00,1.985953344833223611e+01
9.836236306274766861e+00,4.699206893902497129e+00,1.985953350369303649e+01
8.607344616892905975e+00,6.332962328497608873e+00,1.985953357704214994e+01
7.059196787430057185e+00,7.600248360983666629e+00,1.985953358655427081e+01
4.763043186791454886e+00,7.405725253609812597e+00,1.803805131371121462e+01
3.182153198964225993e+00,7.636879251195454188e+00,1.803771380656400325e+01
1.695822292457647817e+00,7.579545392290612860e+00,1.803756349233465883e+01
3.608515302703505512e-01,7.274917792355688917e+00,1.803796833580233283e+01
-7.811172348060257953e-01,6.693906070200204894e+00,1.803712140139490927e+01
-1.709688600615501652e+00,5.872893025241658904e+00,1.803672570580024725e+01
-2.330165999779471697e+00,5.068180467622400265e+00,1.803701599814096923e+01
-2.737378670143426618e+00,4.241406617018883551e+00,1.803668401085883133e+01
-2.933692330980624430e+00,3.424272935405887175e+00,1.803748664168163174e+01
-3.005167130865378677e+00,2.776001908933246831e+00,1.803764538195869704e+01
-3.009839685219334537e+00,2.281791080794012494e+00,1.803693265140940127e+01
-2.957447042927818792e+00,1.966360107602945106e+00,1.803827991566825872e+01
-2.976837061744567858e+00,1.757701272114203572e+00,1.803844890909834220e+01
-3.114463681091872438e+00,1.564670832210887541e+00,1.803778723010726992e+01
-3.363196149821245040e+00,1.347292984575415797e+00,1.803796824677338151e+01
-3.621236859524293195e+00,1.034444538565106653e+00,1.803766254270269442e+01
-3.974397356930729597e+00,6.384925803716350323e-01,1.803788695433249600e+01
-4.259231133122459489e+00,1.374712206355266364e-01,1.803732658556463164e+01
-4.453636531368083240e+00,-4.886568014857868292e-01,1.803741645861332898e+01
-4.648084483417564527e+00,-1.219707346036503104e+00,1.803805721115604399e+01
-4.770676779107648535e+00,-2.082681221885674283e+00,1.803750087935416957e+01
-4.586938763484221582e+00,-2.935221898960396647e+00,1.803780386886816345e+01
-4.377767376558364454e+00,-3.976031339046664392e+00,1.803883282215191741e+01
-3.903658878874388005e+00,-5.044165760834834700e+00,1.803769648514543888e+01
-3.122534611312031139e+00,-6.075563935075467548e+00,1.803698795035927205e+01
-1.996962693013814238e+00,-6.990090882830475749e+00,1.803748942781189868e+01
-6.575999132976757533e-01,-7.817020822610983188e+00,1.803761177086052214e+01
8.825582256786882462e-01,-8.288681270631833797e+00,1.803690651158152747e+01
2.646609556522687701e+00,-8.486418171461016513e+00,1.803685869741502046e+01
4.443453327765160665e+00,-8.210447670401116227e+00,1.803722139103868471e+01
6.259100879559849062e+00,-7.634664869787873620e+00,1.803827691352785578e+01
7.872412484270787658e+00,-6.561801424464306365e+00,1.803724724621224951e+01
9.281488524382455196e+00,-5.179458179880935376e+00,1.803739082296295493e+01
1.018996944417219375e+01,-3.442009528470231228e+00,1.803756525808525524e+01
1.063747568714888558e+01,-1.424338391874735876e+00,1.803680396153783860e+01
1.065242289316197599e+01,6.289571970107932231e-01,1.803706018003783740e+01
1.011021189900173844e+01,2.590719928862479815e+00,1.803775047716490221e+01
9.268412698795769344e+00,4.379081987951677135e+00,1.803796168421342472e+01
7.909545276316510609e+00,5.828716643880417436e+00,1.803732268646154324e+01
6.345914953277951298e+00,6.806049804480740484e+00,1.803779936580942689e+01
4.741495342099817378e+00,6.915139711819523249e+00,1.621508275232753959e+01
3.232277545491826665e+00,7.049324006110532892e+00,1.621480248409738323e+01
1.850374540741159368e+00,6.947675179114227717e+00,1.621487967973580169e+01
6.308960195474544452e-01,6.653302029195244494e+00,1.621495785272389867e+01
-3.637628130286372219e-01,6.123098866047914868e+00,1.621620712408642362e+01
-1.152631951379282649e+00,5.495866934867714271e+00,1.621627112949538230e+01
-1.701443541843593366e+00,4.810161818498897013e+00,1.621543584243262615e+01
-2.065333354178113812e+00,4.073473706389522775e+00,1.621543547962319565e+01
-2.291962358828487645e+00,3.361316535934490535e+00,1.621621320249392539e+01
-2.400794924782887474e+00,2.745144511027923784e+00,1.621647405761780902e+01
-2.418330034918608096e+00,2.379066303564805196e+00,1.621565973720604248e+01
-2.435923463555577761e+00,2.054550629947083262e+00,1.621568177271828759e+01
-2.500210669821798515e+00,1.831468331900604873e+00,1.621586378541812934e+01
-2.653856467938387809e+00,1.611182153635599690e+00,1.621521600368107840e+01
-2.915257955698653980e+00,1.387623240889501286e+00,1.621553319422736195e+01
-3.268135884381284662e+00,1.105797655603821816e+00,1.621584881826980151e+01
-3.732449597024767307e+00,7.123684250350844627e-01,1.621589144091633372e+01
-4.020640809716519826e+00,1.481863259682854039e-01,1.621523831899806467e+01
-4.241520304338676439e+00,-5.229981407687687156e-01,1.621489997854668275e+01
-4.435104065501994874e+00,-1.307154785122306206e+00,1.621542283675920970e+01
-4.511025108885418966e+00,-2.174923351062637344e+00,1.621559970664317163e+01
-4.385053700566913903e+00,-3.135645909895317107e+00,1.621549934147119743e+01
-4.220981453767565839e+00,-4.291000574175589222e+00,1.621526322139221321e+01
-3.771190068061766709e+00,-5.522485759896925472e+00,1.621606312701267072e+01
-2.929734804616342725e+00,-6.751395118141669371e+00,1.621621595252952730e+01
-1.757446447254322308e+00,-7.826299783203504390e+00,1.621505637328210625e+01
-2.833133418043880525e-01,-8.682538153076118093e+00,1.621564724670855284e+01
1.394805275911206177e+00,-9.132196977441392249e+00,1.621587665190332217e+01
3.286118621525130123e+00,-9.318929248840529311e+00,1.621546494520723414e+01
5.174339212686756895e+00,-8.927664093808401091e+00,1.621594666350479841e+01
6.944568365879634442e+00,-8.057395044174850085e+00,1.621621560912153370e+01
8.481196140407718076e+00,-6.823768085704086772e+00,1.621485004602881475e+01
9.672632448821332218e+00,-5.190292484547652130e+00,1.621510330524494137e+01
1.037866619218099551e+01,-3.371746101122450323e+00,1.621642566379882311e+01
1.071010440930860597e+01,-1.392741987971862550e+00,1.621612036851750105e+01
1.059070899102799501e+01,6.259967738361476020e-01,1.621483699688868185e+01
9.882996071959004425e+00,2.555860009720657189e+00,1.621621126031817539e+01
8.938888794531226978e+00,4.183119210466045068e+00,1.621610452353861120e+01
7.742499645143439579e+00,5.508484143031220803e+00,1.621460125982690315e+01
6.275219985015494828e+00,6.394001203111323584e+00,1.621514722374229223e+01
4.870749901874696697e+00,6.481721380110635700e+00,1.439407120751873492e+01
3.371059731338331922e+00,6.628030219952936619e+00,1.439460406690412597e+01
1.989842703381403677e+00,6.489835139355602855e+00,1.439358483311355208e+01
8.318395905428677128e-01,6.206681905969733570e+00,1.439329444258185831e+01
-1.421817795819797503e-01,5.686586714253124342e+00,1.439337636747886684e+01
-9.204434931821581234e-01,5.031855811656897437e+00,1.439253518462729353e+01
-1.421544988505523577e+00,4.348869901730021859e+00,1.439298511497494282e+01
-1.771196195659950678e+00,3.712977987984564798e+00,1.439344613591431887e+01
-2.013701302894885359e+00,3.056625866512934220e+00,1.439420279864758712e+01
-2.136135497122387150e+00,2.489771287456686188e+00,1.439333254621711866e+01
-2.189369128681948773e+00,2.181469641335041398e+00,1.439221406990575680e+01
-2.266606183022197740e+00,1.884046179386625219e+00,1.439331656850308150e+01
-2.372103807436176215e+00,1.640341855618749900e+00,1.439336259238078952e+01
-2.541674276806494159e+00,1.400042159109522899e+00,1.439395146729903274e+01
-2.836222086032062606e+00,1.214860318004208573e+00,1.439365119903792944e+01
-3.247227487379152233e+00,9.185580526743674090e-01,1.439275537846291009e+01
-3.673727759102796586e+00,5.135752044704067210e-01,1.439363638224569897e+01
-4.003683759909023365e+00,-5.579794056242759481e-02,1.439377081081345366e+01
-4.254925176737939907e+00,-7.525273140014219209e-01,1.439322010543918395e+01
-4.534094546557574823e+00,-1.618515855116123614e+00,1.439356161733959638e+01
-4.760801655368120500e+00,-2.664632512899657968e+00,1.439296664199969022e+01
-4.678126444210369606e+00,-3.773567297212152560e+00,1.439337685195868666e+01
-4.458441974796221174e+00,-5.081349598667614487e+00,1.439312479332374828e+01
-3.845135310217655089e+00,-6.433426284203674683e+00,1.439349248296174366e+01
-2.891903112081248839e+00,-7.686154814938393365e+00,1.439337493938846535e+01
-1.661380043994966416e+00,-8.706144215624279425e+00,1.439305230940665226e+01
-7.536167073137811645e-02,-9.438104004652609902e+00,1.439369676014059607e+01
1.724729777217607785e+00,-9.799111905510768494e+00,1.439382334649410389e+01
3.645222203174491415e+00,-9.768092909326115958e+00,1.439370551080486393e+01
5.522529142812520497e+00,-9.236023882332421664e+00,1.439392576403247936e+01
7.240839799125285303e+00,-8.338582736481983559e+00,1.439382923512073376e+01
8.686142899669652806e+00,-6.999564940129198831e+00,1.439354217619876941e+01
9.799222256637134976e+00,-5.348265806744255890e+00,1.439389645502947523e+01
1.045818265976990347e+01,-3.521924024393086938e+00,1.439379472222551648e+01
1.068620443805021480e+01,-1.574265863942865717e+00,1.439272858147154821e+01
1.049966364085883974e+01,4.156706403793155591e-01,1.439351142648357929e+01
9.762405742426729205e+00,2.302842466876013905e+00,1.439337746940243612e+01
8.835341270471099406e+00,3.810421781184217149e+00,1.439328947439823914e+01
7.695657364337198381e+00,5.033716456177018017e+00,1.439329219568149476e+01
6.340698099602510851e+00,5.940233229928315595e+00,1.439341929607987858e+01
4.636012711278292286e+00,6.251506718122985085e+00,1.257125256920117806e+01
3.196242412770143648e+00,6.404855515643329333e+00,1.257142693865335126e+01
1.846757924677057572e+00,6.226887145702684201e+00,1.257164898677032738e+01
6.967197810479348608e-01,5.862481094261796422e+00,1.257170618416067143e+01
-2.689720593193658527e-01,5.239607970533055159e+00,1.257147882851991127e+01
-9.913165721702078548e-01,4.567256680344804920e+00,1.257160451497597364e+01
-1.441372504647526753e+00,3.856130909125936590e+00,1.257204219108230525e+01
-1.670550768414060361e+00,3.291543132379189274e+00,1.257198261741501000e+01
-1.889759820473849716e+00,2.735453629348717275e+00,1.257176115487164481e+01
-1.985741159368021425e+00,2.269254451928493843e+00,1.257255200908550030e+01
-2.040052736873596118e+00,1.984116329709300963e+00,1.257249422569857522e+01
-2.141906592104648510e+00,1.738225997452558236e+00,1.257245647350228879e+01
-2.270974729945469228e+00,1.512693129687513016e+00,1.257228931898660740e+01
-2.474251845536017402e+00,1.329178557607514355e+00,1.257222853370253901e+01
-2.770717160809300861e+00,1.151835106306398071e+00,1.257167740032024561e+01
-3.137950195684167554e+00,8.735465766101332408e-01,1.257153818293061143e+01
-3.548443552113778487e+00,5.022015609858827556e-01,1.257162188250747192e+01
-3.939300861464561709e+00,-1.609034862523106568e-02,1.257112922335218386e+01
-4.291760400382904628e+00,-7.010612953793824431e-01,1.257129588181271096e+01
-4.704365420053743030e+00,-1.612316313763067388e+00,1.257080362742044422e+01
-5.041372647101939997e+00,-2.790165129830667112e+00,1.257155646696152473e+01
-5.066333127917194368e+00,-4.095493894416561531e+00,1.257160904036915738e+01
-4.735493352365971909e+00,-5.470963524735838135e+00,1.257141017819726336e+01
-4.043522927439318515e+00,-6.945966477311774412e+00,1.257154387522184535e+01
-3.102153206816443909e+00,-8.288568984674325790e+00,1.257107968709115831e+01
-1.738416030311621618e+00,-9.286330567791932111e+00,1.257044258402203063e+01
-2.752177457100124514e-02,-9.969777334564515314e+00,1.257111118094438851e+01
1.870342249941050250e+00,-1.024988092556701602e+01,1.257132934923509993e+01
3.809494695699148448e+00,-1.009527979120435859e+01,1.257147643390777958e+01
5.677881570685206825e+00,-9.509591350418357791e+00,1.257174452620416361e+01
7.412546989151792332e+00,-8.523801881431989358e+00,1.257156839571759477e+01
8.856169653786686524e+00,-7.112119160703537446e+00,1.257157708436084675e+01
9.934112989787646342e+00,-5.404234175663522599e+00,1.257147775785665722e+01
1.052297017868517415e+01,-3.497593697111929689e+00,1.257172094485850877e+01
1.060844615815326719e+01,-1.464866024638828756e+00,1.257176833060126953e+01
1.020523525812358656e+01,5.938791199366983964e-01,1.257188798011939213e+01
9.542523650475180474e+00,2.322480867511455216e+00,1.257158756491681295e+01
8.551418001160865145e+00,3.756792971397482805e+00,1.257195041004851177e+01
7.373764044988043054e+00,4.892734429576758970e+00,1.257250377058635493e+01
6.056715187249269050e+00,5.740704417916074220e+00,1.257196119226598441e+01
3.948032458344741702e+00,6.118784137787836030e+00,1.075036211926887475e+01
2.428839821542641442e+00,6.146261514157245642e+00,1.075037005971173443e+01
1.146552022346056354e+00,5.943397078629385710e+00,1.074946673516158846e+01
6.552836510739123987e-02,5.506381139300450478e+00,1.074952888612860846e+01
-8.012817290043903196e-01,4.934427142677906275e+00,1.075100219790937395e+01
-1.445178729483953761e+00,4.297228505213541716e+00,1.074986519644822636e+01
-1.842003640502548167e+00,3.545208706868647308e+00,1.074946926150697202e+01
-2.005580375631284440e+00,3.044528633268631879e+00,1.074915077780538475e+01
