9.383559413002048544e+00,2.500340386837701878e+00,-9.993100371391215875e-01
8.526123255554125535e+00,4.106023838548875204e+00,-9.989798771476813277e-01
7.493136134806471560e+00,5.537989644538771294e+00,-9.973481286847405425e-01
5.604981454847023592e+00,6.432557850748042760e+00,-3.098899413629057520e+00
4.312506358745595847e+00,7.304337396470856447e+00,-3.099626838559069952e+00
2.974976844505191842e+00,7.973138458963230590e+00,-3.099509495863808528e+00
1.679663262114443611e+00,8.401549146783084510e+00,-3.099562194634116530e+00
4.127662791785460250e-01,8.630798513631283697e+00,-3.099657895821401166e+00
-8.859612200921218594e-01,8.693918848101663599e+00,-3.099567572560681938e+00
-2.231739432971645343e+00,8.580445090929693208e+00,-3.098158303687815529e+00
-3.573382397995984228e+00,8.237372448879762388e+00,-3.099676163602617329e+00
-4.809959863946838610e+00,7.777050351100400327e+00,-3.098764664748192121e+00
-5.987613365991554915e+00,7.137640196022289274e+00,-3.098285605995286129e+00
-7.059126127741742529e+00,6.279194703827303492e+00,-3.098843660478376894e+00
-8.072789172104162247e+00,5.296589999039005292e+00,-3.099037345762151396e+00
-8.970827682631430378e+00,4.123171989974266261e+00,-3.097325181935546290e+00
-9.650438820256383110e+00,2.766061168581733565e+00,-3.097473828458661149e+00
-1.007510093425179498e+01,1.284182956217167826e+00,-3.099606912376594803e+00
-1.022887013915614673e+01,-3.025905187172297506e-01,-3.099873765041195828e+00
-1.005772205032760525e+01,-1.929095459697982129e+00,-3.099140345349018499e+00
-9.656907082785176399e+00,-3.601471368020345842e+00,-3.098515997561274826e+00
-9.051874344035661935e+00,-5.243646671034746021e+00,-3.098179854280231016e+00
-8.165383848920996002e+00,-6.697393059430914342e+00,-3.098191393674068372e+00
-7.041082999840332590e+00,-7.912967369036977061e+00,-3.099088525704757568e+00
-5.665570142496769712e+00,-8.973536766729697689e+00,-3.098804571528270824e+00
-4.227135400275369825e+00,-9.771715332734684623e+00,-3.098966751315073154e+00
-2.781568930645283100e+00,-1.028459711663385256e+01,-3.099229805107196700e+00
-1.328113359666007298e+00,-1.054048151673829459e+01,-3.099717760468097882e+00
1.546524944078041530e-01,-1.045963468148876174e+01,-3.099416283609235379e+00
1.543932646998494418e+00,-1.021886035458897446e+01,-3.099021454706201162e+00
2.846323186427695884e+00,-9.860664815546460460e+00,-3.098374495553161356e+00
4.109690336437345159e+00,-9.381056090536166181e+00,-3.098836060273722826e+00
5.417333364798945894e+00,-8.671939031235258000e+00,-3.099819133417317296e+00
6.639061862915521139e+00,-7.601592874316484227e+00,-3.099166442606247962e+00
7.630635135659748158e+00,-6.310283153426007985e+00,-3.098253227975269475e+00
8.440632013388729149e+00,-4.939768667240489464e+00,-3.098270020107831701e+00
9.043071445041276135e+00,-3.544215712621944014e+00,-3.098944366811780426e+00
9.372596741402682952e+00,-2.100317189060005418e+00,-3.098530798569359312e+00
9.421376175323512570e+00,-5.495355882992511987e-01,-3.098145622291027301e+00
9.169537580126647214e+00,1.001544229349860871e+00,-3.098391309428393914e+00
8.618598929044839707e+00,2.539224776565578434e+00,-3.099132293663835025e+00
7.800264701310901216e+00,4.009038432318756229e+00,-3.099422302288870945e+00
6.786067082475928380e+00,5.324985164153888562e+00,-3.098923208532039730e+00
4.742551889097926576e+00,6.224340026031885742e+00,-5.199917247908008910e+00
3.478668836290724986e+00,6.971251942180698435e+00,-5.200141653755280480e+00
2.391266150213757768e+00,7.492143841071912114e+00,-5.200101117404146045e+00
1.298554992513863526e+00,7.837171695535586124e+00,-5.199313284379014632e+00
1.899330022885463709e-01,8.021116966255732450e+00,-5.198782910551302372e+00
-9.423520373778051518e-01,8.039941386051077998e+00,-5.199533209855628613e+00
-2.125939606119596093e+00,7.925910436292587846e+00,-5.199426934137366452e+00
-3.249181500239704423e+00,7.699520954384868610e+00,-5.199738553736863444e+00
-4.380104031449250535e+00,7.308086787454959321e+00,-5.199387418044199904e+00
-5.479841110487599920e+00,6.730044313760534358e+00,-5.199684385514223628e+00
-6.519831843914624336e+00,5.987960965360207943e+00,-5.200835195079722695e+00
-7.489351339241544281e+00,5.093593899494171851e+00,-5.200209117824654115e+00
-8.367461637111027528e+00,4.017587938657346314e+00,-5.199613548541666574e+00
-9.050146023559289432e+00,2.768477031489652074e+00,-5.199236949850272183e+00
-9.480813176753798643e+00,1.371905270263548804e+00,-5.198891836987550086e+00
-9.718646346132464586e+00,-1.215410445708449139e-01,-5.201274853133677212e+00
-9.558094879521211951e+00,-1.673717586676272129e+00,-5.201139010180292566e+00
-9.188363114018498479e+00,-3.227664182167289564e+00,-5.199997892976695901e+00
-8.650357183885091672e+00,-4.805758728568201299e+00,-5.199835906064677715e+00
-7.791399444803816188e+00,-6.215201944892631225e+00,-5.199931057838930393e+00
-6.662691013511937932e+00,-7.378392642542081603e+00,-5.200348601198635734e+00
-5.295916060652849922e+00,-8.371366124746659310e+00,-5.200049454336348909e+00
-3.825765670948975128e+00,-9.128556135688315365e+00,-5.199534527694340547e+00
-2.298723275506187491e+00,-9.570315886680633710e+00,-5.200110080275470281e+00
-8.066295167544317302e-01,-9.710716407685215046e+00,-5.199761325747986440e+00
4.076983314479072362e-01,-9.638049721577214513e+00,-5.200256436694555617e+00
1.633645634403263269e+00,-9.386232596454474830e+00,-5.199179005553844490e+00
2.838973510469978923e+00,-8.971679173780339411e+00,-5.199843008938911382e+00
3.997288277883561225e+00,-8.495427293034502725e+00,-5.200753269127798006e+00
5.078324164528053686e+00,-7.786610963415427911e+00,-5.199784634484244883e+00
6.163631215156017973e+00,-6.803218462077175843e+00,-5.199522035094215511e+00
7.113965743944107523e+00,-5.563050267813255623e+00,-5.199502640643896889e+00
7.869500967881558395e+00,-4.307088272918873528e+00,-5.199662757653188194e+00
8.349930884000876574e+00,-3.038460657105471974e+00,-5.199726068702668513e+00
8.612553404425176140e+00,-1.694424982804101365e+00,-5.199908646366853127e+00
8.629511895087253137e+00,-2.100978000536299073e-01,-5.199933072925825961e+00
8.311791364448714248e+00,1.307800959300717825e+00,-5.199966325804824763e+00
7.824637889207081365e+00,2.617642878425388897e+00,-5.199934741334149457e+00
7.067939350988627467e+00,3.945729174779375015e+00,-5.199640077102926305e+00
6.009217916166720741e+00,5.189121413969748353e+00,-5.199536018019726313e+00
4.198836978985347024e+00,5.989410222358736213e+00,-7.300678821307941213e+00
3.248663896875729318e+00,6.590723748334074372e+00,-7.300290554704560897e+00
2.284519557501996978e+00,7.076418137133742015e+00,-7.300684905177301509e+00
1.272440809555097418e+00,7.407556520705471215e+00,-7.300826935515730476e+00
2.622451615400722691e-01,7.574849995506455436e+00,-7.300554551801715419e+00
-7.799877069463143631e-01,7.588531758741675404e+00,-7.299691053448722933e+00
-1.851955520002257494e+00,7.480553594417019170e+00,-7.300186331736954415e+00
-2.885985963444539948e+00,7.273482404994437545e+00,-7.300215541678626074e+00
-3.913291564625357655e+00,6.889189861156623351e+00,-7.300008910578347887e+00
-4.911443513167328412e+00,6.348629655465953370e+00,-7.300551688902200631e+00
-5.870358107869347641e+00,5.688896657623907949e+00,-7.300726430602607842e+00
-6.765124534826819414e+00,4.868419137292081977e+00,-7.299608133399462240e+00
-7.648721719946755648e+00,3.923201995472044956e+00,-7.300697501906915576e+00
-8.313934430592393454e+00,2.786109035595446759e+00,-7.302300536104258555e+00
-8.748895813174843994e+00,1.480670112606413458e+00,-7.301823160323465345e+00
-9.067987523695469676e+00,9.208303569469278305e-02,-7.301636218690395808e+00
-8.961851902490892030e+00,-1.351461718301677717e+00,-7.301757331806981277e+00
-8.669640681680926164e+00,-2.809570175397714920e+00,-7.301357790778396861e+00
-8.155642740525475887e+00,-4.242127777729005622e+00,-7.301197735707645187e+00
-7.358073296758420589e+00,-5.542380884672905239e+00,-7.300374299821076995e+00
-6.286196944894770766e+00,-6.637681117255638696e+00,-7.300018289382420811e+00
-5.037310496162040074e+00,-7.552431695686129487e+00,-7.300692933142748586e+00
-3.667075409250335039e+00,-8.260001453689454820e+00,-7.300753740644294609e+00
-2.198235098393452436e+00,-8.672965957179128438e+00,-7.300597903505287256e+00
-7.553253682089817733e-01,-8.795390108938198281e+00,-7.300579271056025554e+00
6.006088237638387284e-01,-8.665719720167508910e+00,-7.300209974124962642e+00
1.698633048648495292e+00,-8.403471069081405176e+00,-7.301400249770305884e+00
2.732011489533014537e+00,-8.050990708056012579e+00,-7.301694048850666974e+00
3.826039914214943050e+00,-7.545449771193539767e+00,-7.300955939813596807e+00
4.792123341177209284e+00,-6.842870003836582171e+00,-7.300246939588828532e+00
5.743331402421199883e+00,-5.997878630477116779e+00,-7.299972420128841399e+00
6.555588571346164350e+00,-4.812965218385247823e+00,-7.299617593555915995e+00
7.199097662916548401e+00,-3.626425108406301501e+00,-7.300851021570633925e+00
7.621760894264829389e+00,-2.506733577488224451e+00,-7.300880389229151390e+00
7.849430775375410008e+00,-1.273062275091834561e+00,-7.301016614868114374e+00
7.830542412723535683e+00,1.960080271536330798e-01,-7.301099286418518908e+00
7.524543049186287469e+00,1.523345596217182241e+00,-7.300636557949836458e+00
7.092884857241128493e+00,2.706111966716289174e+00,-7.300830087999614193e+00
6.260289780180055885e+00,4.033656842647979524e+00,-7.301292976667976831e+00
5.185354604011612523e+00,5.184864656386587001e+00,-7.301298112580556499e+00
4.213788441182506617e+00,5.643358696110745143e+00,-9.402237227985423829e+00
3.311008114586734496e+00,6.267731943777566705e+00,-9.402493539614901863e+00
2.376788890664831566e+00,6.767226522299936597e+00,-9.401613104514717989e+00
1.395128287702576797e+00,7.107262368058249180e+00,-9.401730930241008366e+00
4.425120722323858669e-01,7.291448408488575339e+00,-9.402413542976658434e+00
-5.519754497946181004e-01,7.339572431554548970e+00,-9.402126704530607171e+00
-1.541077079090628299e+00,7.248001892992077089e+00,-9.401936557726607191e+00
-2.530340893618658438e+00,7.055210693765648244e+00,-9.401453126427337992e+00
-3.500261586757554610e+00,6.665604390633579790e+00,-9.400271964370618960e+00
-4.430231088239154680e+00,6.150300227297128330e+00,-9.400545266830725666e+00
-5.343771184950968589e+00,5.547765574547534939e+00,-9.401841597675247186e+00
-6.196188448092322609e+00,4.770196440235617175e+00,-9.401984086565470022e+00
-6.981680146790294472e+00,3.874995981990292382e+00,-9.401131871142588636e+00
-7.598008592011520790e+00,2.827529362294405768e+00,-9.400898690845101768e+00
-8.012981554839162968e+00,1.628308600360141245e+00,-9.401558180948875076e+00
-8.309050363581013343e+00,3.503630909255471826e-01,-9.401605170870562134e+00
-8.230482726423838713e+00,-9.711693144000879130e-01,-9.401944693448580637e+00
-8.003653307755579149e+00,-2.285104733240150843e+00,-9.402175985956620963e+00
-7.556518017163169176e+00,-3.539208902266173240e+00,-9.401716370879249496e+00
-6.828313134907889825e+00,-4.738985735834122970e+00,-9.400731315710782354e+00
-5.830682031752510319e+00,-5.754993014847821442e+00,-9.400632775183307643e+00
-4.738771994504537233e+00,-6.586193277344207786e+00,-9.401286293409343742e+00
-3.515899890197006883e+00,-7.236715484847067614e+00,-9.400720753776754535e+00
-2.194831708876480825e+00,-7.633014273739664901e+00,-9.400939651693471788e+00
-8.774788054765636502e-01,-7.758406146673761938e+00,-9.401430651202225874e+00
3.659060309350879447e-01,-7.696604014474353050e+00,-9.401052065558243243e+00
1.438106506979815125e+00,-7.442570092991863007e+00,-9.401742936782893523e+00
2.451558614529134150e+00,-7.107116690279598359e+00,-9.402302899342695142e+00
3.496558751011979993e+00,-6.641714254328222822e+00,-9.402061149558630149e+00
4.481509489076293207e+00,-5.974879817672428928e+00,-9.401313261268944288e+00
5.370917494148712557e+00,-5.168339390821294899e+00,-9.401524471299888219e+00
6.094616483378933580e+00,-4.154576691210096762e+00,-9.401474028793931126e+00
6.610636156659703389e+00,-3.035857627615223375e+00,-9.400405159313971026e+00
6.998687760894378940e+00,-2.022902900010192351e+00,-9.402024532033776083e+00
7.230393812396328279e+00,-8.861490973855348230e-01,-9.402846148088272571e+00
7.167628176671295925e+00,5.268627818003697172e-01,-9.402133705772287797e+00
6.908511888863323236e+00,1.680207560537146483e+00,-9.401184112961377792e+00
6.472789563005449054e+00,2.832819501896577385e+00,-9.401305604641031266e+00
5.851463936022822665e+00,3.927422427041943109e+00,-9.402126138504707242e+00
5.098867324135353485e+00,4.849855881946915304e+00,-9.402466798109475832e+00
4.139123090941099647e+00,5.379381724995110581e+00,-1.150265794902971983e+01
3.326108484291629974e+00,5.996570417595791902e+00,-1.150218774504814334e+01
2.460520447598367522e+00,6.488736918032174117e+00,-1.150230407115772202e+01
1.552904593407704370e+00,6.838734890346477080e+00,-1.150228589038829519e+01
6.124905016206579900e-01,7.038756139702751824e+00,-1.150281971685544136e+01
-3.239328268064851635e-01,7.105908716431741823e+00,-1.150364124326192083e+01
-1.259074890962270432e+00,7.047904996476309414e+00,-1.150358967381751008e+01
-2.176800516653599082e+00,6.876267354744065585e+00,-1.150335795969981767e+01
-3.110255155211308242e+00,6.505341675627986930e+00,-1.150278268407373972e+01
-3.979910209605091786e+00,6.007259124381483240e+00,-1.150209990548563965e+01
-4.837580131499246150e+00,5.432367874209075964e+00,-1.150214914837307489e+01
-5.606131628326748384e+00,4.696703195835346456e+00,-1.150211479783491519e+01
-6.266144046151448599e+00,3.841494504970085266e+00,-1.150234653929929429e+01
-6.845309522537361246e+00,2.891517625922169099e+00,-1.150260051912791504e+01
-7.231784282385622653e+00,1.790506679192179762e+00,-1.150288785285505710e+01
-7.401920030783777804e+00,6.388773448340109296e-01,-1.150288025983496176e+01
-7.282934008627309552e+00,-5.134955112781985909e-01,-1.150373861607868520e+01
-7.161590979244516042e+00,-1.650949911140416670e+00,-1.150432648029946314e+01
-6.864472592009778218e+00,-2.773593678539453489e+00,-1.150366155121091261e+01
-6.175935169119780355e+00,-3.864661745058929565e+00,-1.150337385658653666e+01
-5.303946458008265807e+00,-4.770438077296971890e+00,-1.150246180164349319e+01
-4.371366451877938708e+00,-5.498272287471801079e+00,-1.150270958697998225e+01
-3.308125558195451177e+00,-6.100891264625069255e+00,-1.150325313647264913e+01
-2.146208843845533121e+00,-6.459826191247935334e+00,-1.150328518432494285e+01
-1.020945939481431530e+00,-6.593977073876299499e+00,-1.150243359006166166e+01
6.298892772964004294e-02,-6.612214864167587969e+00,-1.150227308491290756e+01
1.078468047466388358e+00,-6.421826336157087312e+00,-1.150331729142417636e+01
2.106810620540976231e+00,-6.092523709334273896e+00,-1.150304290187228062e+01
3.138939171331060596e+00,-5.643527257371927064e+00,-1.150318241452785273e+01
4.028260771283550312e+00,-5.021129610000850896e+00,-1.150298081483550128e+01
4.875412476482559043e+00,-4.249268678015399203e+00,-1.150239367661768242e+01
5.570682558422346276e+00,-3.487909697465937153e+00,-1.150300233218208668e+01
6.055343044444525091e+00,-2.521688811008856668e+00,-1.150317418655263779e+01
6.373646357783886884e+00,-1.582445851206488951e+00,-1.150189868522385339e+01
6.632932525994884365e+00,-5.460073427450355954e-01,-1.150233418492567061e+01
6.588825793609784931e+00,7.440248350523470666e-01,-1.150312385782507540e+01
6.343721477043516188e+00,1.824452098156281288e+00,-1.150315653290025075e+01
5.975039232292725266e+00,2.852287306647287579e+00,-1.150354144435154602e+01
5.482816798486328302e+00,3.808881705854839872e+00,-1.150376316775347441e+01
4.872527795225599867e+00,4.646372820605821907e+00,-1.150371362379217821e+01
3.848692454537127272e+00,5.139909422424155494e+00,-1.360376160681587621e+01
3.126834883378047714e+00,5.715717058870910527e+00,-1.360355396005893702e+01
2.360220112191519615e+00,6.154032462261132430e+00,-1.360318828543305791e+01
1.594369866323968266e+00,6.498046768892410618e+00,-1.360276832586868245e+01
7.546926959346064168e-01,6.718666352105180373e+00,-1.360413621573518128e+01
-1.436206678348931065e-01,6.776555320601932664e+00,-1.360414745063343567e+01
-1.012712643807501145e+00,6.739065106979513331e+00,-1.360351807025212878e+01
-1.839495335347452798e+00,6.591837380104792921e+00,-1.360343613061409762e+01
-2.683053908245569996e+00,6.251123721188462490e+00,-1.360341695194267331e+01
-3.468708530154133829e+00,5.767043290944180889e+00,-1.360327906056676284e+01
-4.219678595860024473e+00,5.205085385282373522e+00,-1.360295671399869377e+01
-4.910898636868332723e+00,4.552068509631267190e+00,-1.360327701769011455e+01
-5.496576776759473759e+00,3.795732014347621863e+00,-1.360325781788559851e+01
-6.029216977075589234e+00,2.948404956350739070e+00,-1.360366153036815007e+01
-6.354598742215562979e+00,1.952775089696935584e+00,-1.360443925513558661e+01
-6.354393431687855198e+00,9.358900038378964448e-01,-1.360341875453949356e+01
-6.305688605142908187e+00,-6.315451400199301180e-02,-1.360213442584786314e+01
-6.291519527464758177e+00,-1.017673782822587025e+00,-1.360325040192031665e+01
-6.064300183203893191e+00,-2.010066000367909389e+00,-1.360332647949750928e+01
-5.439774430908888903e+00,-2.956159455608301734e+00,-1.360246187437987508e+01
-4.691730473739157858e+00,-3.714298885745555445e+00,-1.360317313137960937e+01
-3.939194888006965822e+00,-4.358970258339297743e+00,-1.360313876869811445e+01
-3.015198064195844019e+00,-4.879555661148277323e+00,-1.360377889785917560e+01
-2.042793187181947800e+00,-5.192345349112147623e+00,-1.360366409502609386e+01
-1.097624072677369611e+00,-5.322555124446967767e+00,-1.360357381552967304e+01
-8.053348145856475959e-02,-5.333249901632120427e+00,-1.360421661400021875e+01
9.054202067022514289e-01,-5.195309416580716544e+00,-1.360277299006617291e+01
1.853641411273520223e+00,-4.923562627661745239e+00,-1.360325370295247005e+01
2.753493530961002023e+00,-4.550983697310876153e+00,-1.360416490025681746e+01
3.575096001760986741e+00,-4.058888780931342311e+00,-1.360367927212325512e+01
4.314459111654986856e+00,-3.343789065164608942e+00,-1.360374135561097297e+01
4.866124478581492774e+00,-2.753611877523093110e+00,-1.360347385408199727e+01
5.347781434294160974e+00,-1.970253857824657118e+00,-1.360298879036345099e+01
5.720082854784418025e+00,-1.146332430213037101e+00,-1.360378552381098238e+01
5.923553423774619020e+00,-2.151294534260405067e-01,-1.360444571993324914e+01
5.936414405969610897e+00,9.109547625989885544e-01,-1.360237455269759188e+01
5.721054967005650305e+00,1.942119010229373721e+00,-1.360279951017235511e+01
5.420997788338236312e+00,2.862387732409626295e+00,-1.360352412226107788e+01
4.999704476766776651e+00,3.719971309384064284e+00,-1.360323526757452406e+01
4.470025469644608229e+00,4.477972314109351260e+00,-1.360372549156600819e+01
3.428267521066350021e+00,4.841582353309469511e+00,-1.570356034637573295e+01
2.808157165067619143e+00,5.346252097390868485e+00,-1.570377237083397759e+01
2.114069641890090168e+00,5.723969783558882085e+00,-1.570411872713486368e+01
1.436130725932862839e+00,6.033298488207537780e+00,-1.570433991542131125e+01
7.478109219233117777e-01,6.244377268811343029e+00,-1.570465878789423897e+01
-1.678331589341369723e-02,6.316717510734076058e+00,-1.570462656665601919e+01
-7.758483753329445953e-01,6.277063274880682719e+00,-1.570318288992117139e+01
-1.508133765852269326e+00,6.090496364408618746e+00,-1.570372656947010803e+01
-2.228161683633158585e+00,5.804330586673411396e+00,-1.570470534619525260e+01
-2.912651810888364778e+00,5.406313216798361410e+00,-1.570482242799646500e+01
-3.559024533487633590e+00,4.892277207468111122e+00,-1.570486329211751553e+01
-4.151979470469334466e+00,4.313021634639029322e+00,-1.570466892728283881e+01
-4.656341236615341828e+00,3.675888095728719662e+00,-1.570443791565835312e+01
-5.107810230872935620e+00,2.942470022632732718e+00,-1.570456003141799606e+01
-5.416218981956604672e+00,2.072505946409139987e+00,-1.570437290074135284e+01
-5.259762353384555666e+00,1.206825359823331389e+00,-1.570389553722518805e+01
-5.322136137060324401e+00,3.713806662573083117e-01,-1.570455105304044352e+01
-5.390257356421962243e+00,-4.426028475539878215e-01,-1.570485775835257769e+01
-5.165013404300554001e+00,-1.309356080249660215e+00,-1.570517939820527076e+01
-4.617038548810610266e+00,-2.100997261270974192e+00,-1.570513401054271618e+01
-4.040611029879917382e+00,-2.718898385555944763e+00,-1.570510597795236052e+01
-3.417901205725230707e+00,-3.283235845704625344e+00,-1.570455409042125261e+01
-2.641694592998260482e+00,-3.709425139039983499e+00,-1.570430755040865201e+01
-1.807308755708671333e+00,-3.962776140670704272e+00,-1.570511663906055944e+01
-9.077405590129532520e-01,-4.052083579047581097e+00,-1.570433465614191881e+01
-3.406046095975939769e-02,-4.011071418229771979e+00,-1.570362826110132914e+01
7.520322094525443424e-01,-3.939531156593400585e+00,-1.570411825428027264e+01
1.552569471026866932e+00,-3.751179198991532182e+00,-1.570375275186052200e+01
2.301977618868591868e+00,-3.470637380030221486e+00,-1.570361606073706717e+01
3.047568061432902820e+00,-3.011981141430458031e+00,-1.570447595658937345e+01
3.686301754780136886e+00,-2.540603248033460382e+00,-1.570409726144339224e+01
4.176775811412664297e+00,-2.063036519921335188e+00,-1.570523343032444075e+01
4.543474703486134914e+00,-1.383327850014028693e+00,-1.570393730898652862e+01
4.835738244588243973e+00,-6.720301069063319144e-01,-1.570349480533830011e+01
5.097954247361133007e+00,1.086928161525130276e-01,-1.570584042594649965e+01
5.199148792525942753e+00,1.044444515292299647e+00,-1.570516058898952494e+01
5.010659374750479067e+00,1.981054044525553781e+00,-1.570415507984297854e+01
4.752327441846425415e+00,2.824689522311308210e+00,-1.570393538227390628e+01
4.408618362390283707e+00,3.574362380594598321e+00,-1.570403418164980991e+01
3.960659232459676549e+00,4.244611269738101100e+00,-1.570393741221692174e+01
2.881938064215549211e+00,4.393306806264206443e+00,-1.780437064617321852e+01
2.362937884633017571e+00,4.807415979708276055e+00,-1.780489760992637827e+01
1.782764573821848941e+00,5.110220677697121516e+00,-1.780519300793804049e+01
1.208358108002911990e+00,5.370350877868565576e+00,-1.780556690236765860e+01
6.123621243665637870e-01,5.550518358557451570e+00,-1.780571325749859213e+01
-3.665625012973378061e-03,5.598833173873841496e+00,-1.780608576858236347e+01
-5.671305441080800591e-01,5.529741556231479116e+00,-1.780581485295520139e+01
-1.159262254565311734e+00,5.370938873772526989e+00,-1.780512762924668735e+01
-1.774503445613523578e+00,5.155283047313455214e+00,-1.780512408831869919e+01
-2.327864448166998113e+00,4.848593137901850980e+00,-1.780538131424322756e+01
-2.844538043471517508e+00,4.405792523502355174e+00,-1.780565762844577193e+01
-3.315867631034076446e+00,3.930460637709537686e+00,-1.780582479405186191e+01
-3.711278843244471215e+00,3.416591750836820651e+00,-1.780481327918041856e+01
-4.063200458186019937e+00,2.830700503363485776e+00,-1.780481020879272336e+01
-4.143055894982973442e+00,2.104697168538165908e+00,-1.780586506272771530e+01
-4.176658533215273472e+00,1.413529780346065579e+00,-1.780623324756885140e+01
-4.255855177468370165e+00,7.326324114568517620e-01,-1.780557220975388333e+01
-4.358022403541085055e+00,5.076108960858882746e-02,-1.780497568497871441e+01
-4.133389428229408580e+00,-6.472855128740709896e-01,-1.780490293806818158e+01
-3.717813354617674815e+00,-1.250903366247923199e+00,-1.780460061109060632e+01
-3.282360986113053158e+00,-1.758458139839451873e+00,-1.780526423545873982e+01
-2.774543440550109707e+00,-2.227942244246285952e+00,-1.780560751320264856e+01
-2.124963153538613980e+00,-2.549468147910406213e+00,-1.780534878673027066e+01
-1.386885503757011140e+00,-2.733313017793969735e+00,-1.780486120073247847e+01
-6.657959647034146222e-01,-2.798364318009199270e+00,-1.780483871452222289e+01
-2.104328818302958481e-02,-2.729572300130763907e+00,-1.780582842366045782e+01
5.886811415296990813e-01,-2.660171999961736589e+00,-1.780576916778132812e+01
1.199416568552014395e+00,-2.558918916006926558e+00,-1.780462808572667655e+01
1.816280046539615389e+00,-2.312583735395721263e+00,-1.780511883607465151e+01
2.416751672335709422e+00,-1.968113388446540490e+00,-1.780641720399593808e+01
2.922475922394007775e+00,-1.700723953826627000e+00,-1.780512780405085493e+01
3.366831621357171400e+00,-1.329332440574255036e+00,-1.780388629168661296e+01
3.709108393403889536e+00,-7.872191315635476139e-01,-1.780497165332902654e+01
3.896479868755858167e+00,-1.818738033578078950e-01,-1.780515437059602846e+01
4.074736046756245678e+00,4.423518151214222427e-01,-1.780486839104360186e+01
4.175433595211432980e+00,1.166715518847994071e+00,-1.780596403463683686e+01
4.176109132272643798e+00,1.948798219706123991e+00,-1.780595608529571550e+01
3.964877013734795064e+00,2.677990541065887076e+00,-1.780551930782448267e+01
3.674495983202019200e+00,3.319156286138261081e+00,-1.780474217147779470e+01
3.321511231790630347e+00,3.880751575551496746e+00,-1.780421812807492898e+01
2.078020677518800152e+00,3.655407765219523597e+00,-1.990598593174089714e+01
1.701749327437723336e+00,3.949620679862341444e+00,-1.990566010412981157e+01
1.277727559172287197e+00,4.156091052826544896e+00,-1.990596966973178183e+01
8.757866185900371470e-01,4.357583312742790760e+00,-1.990624716057512700e+01
4.314882250057596180e-01,4.480712700888637379e+00,-1.990635272280195522e+01
-3.532868964644886312e-02,4.497477158559188837e+00,-1.990579062748824768e+01
-4.071751992094791439e-01,4.438082695670594546e+00,-1.990618790832762741e+01
-7.886832098083087494e-01,4.343278352035603085e+00,-1.990677425316630078e+01
-1.225438852819149105e+00,4.194854501355859355e+00,-1.990629125287480505e+01
-1.617045722264362606e+00,3.968915011747723653e+00,-1.990601648340937402e+01
-1.971266720296277697e+00,3.657159634781783186e+00,-1.990600503182054481e+01
-2.265893748634333793e+00,3.288093871763037690e+00,-1.990670199743625446e+01
-2.501699858133211496e+00,2.927276893842062577e+00,-1.990627817633088981e+01
-2.636837405294552461e+00,2.504625358696816129e+00,-1.990609505684995284e+01
-2.854510483417580513e+00,2.034474869576468059e+00,-1.990672128915368688e+01
-2.917763073420549080e+00,1.550093768100833103e+00,-1.990661772878043223e+01
-3.018720611950099109e+00,1.034897576420314991e+00,-1.990666164956318340e+01
-3.010643663067797071e+00,5.361280867215603152e-01,-1.990689136657331204e+01
-2.854270711272221650e+00,8.361038578503021679e-02,-1.990598601618471974e+01
-2.608127327376604132e+00,-3.059930528114502835e-01,-1.990575274344234913e+01
-2.284256565309698672e+00,-6.886213800466725043e-01,-1.990610737513441109e+01
-1.924188544086580244e+00,-1.028539575428697894e+00,-1.990568013644146461e+01
-1.414826497873233224e+00,-1.228293053711120297e+00,-1.990671826894932650e+01
-8.790507675590046865e-01,-1.334209624847271236e+00,-1.990606146706280555e+01
-4.421645637729016975e-01,-1.371026573212718924e+00,-1.990642547232328141e+01
-6.002779044650102813e-03,-1.324409436119947880e+00,-1.990693744763512640e+01
3.819104431047845583e-01,-1.231770209171797026e+00,-1.990638108439910425e+01
8.033190414502461296e-01,-1.154334862565079778e+00,-1.990582738104198413e+01
1.232292236239258543e+00,-9.704384606653679857e-01,-1.990591830651499450e+01
1.607244120862823644e+00,-8.197087619631067135e-01,-1.990617590723233477e+01
1.981329763578042247e+00,-6.918941878523368061e-01,-1.990577643308195022e+01
2.281000754803187203e+00,-3.999079691259959102e-01,-1.990576266107896330e+01
2.551507508885598074e+00,-2.917163283432633314e-02,-1.990579785203215124e+01
2.793887041175908692e+00,3.670566286315023463e-01,-1.990616543979123065e+01
2.866060366809588533e+00,8.154164156959446963e-01,-1.990649856298376008e+01
2.872875733056938330e+00,1.301923426146959883e+00,-1.990574232906978480e+01
2.897703609100882094e+00,1.799633645602605636e+00,-1.990550080294599766e+01
2.848507070255125395e+00,2.374470840123685811e+00,-1.990600345664420701e+01
2.628104766188380736e+00,2.858262913363250668e+00,-1.990644780969345717e+01
2.380577864567143820e+00,3.281799375863933221e+00,-1.990649185924028330e+01
4.337227213763478195e-03,1.758492517659891119e+00,-2.200719737706061352e+01
4.839040379577067341e+00,7.053354835159625580e+00,2.001134095612116326e+01
3.504364899668867217e+00,7.771592408797687312e+00,2.001134098123970162e+01
2.077310247334291926e+00,8.224839698582742997e+00,2.001134097402518464e+01
6.542778315421637902e-01,8.413405819753435821e+00,2.001134095254982270e+01
-7.460568534120021189e-01,8.371014412036009489e+00,2.001134097070318418e+01
-2.059422479808734607e+00,8.152039999712529905e+00,2.001134097966717107e+01
-3.287721294071133116e+00,7.792307795093394773e+00,2.001134097024108272e+01
-4.417004121774388281e+00,7.287438409809793960e+00,2.001134097670938417e+01
-5.394946878124881273e+00,6.582398612135851756e+00,2.001134098012776263e+01
-6.161144754847770244e+00,5.694833752657125103e+00,2.001134097159910752e+01
-6.707548108614251881e+00,4.700445302169275585e+00,2.001134096699599851e+01
-7.051877103838213756e+00,3.620457534842260738e+00,2.001134098341176326e+01
-7.131238567461565481e+00,2.510663945586482093e+00,2.001134100676009808e+01
-7.014407996467895146e+00,1.402424716476584177e+00,2.001134099109468423e+01
-6.713280111280686135e+00,3.576003783776164902e-01,2.001134100516923553e+01
-6.291756499365483535e+00,-5.972164223989934184e-01,2.001134103922500174e+01
-5.760567813270442983e+00,-1.472783955697830161e+00,2.001134102250367164e+01
-5.141600584285948905e+00,-2.233350814621715141e+00,2.001134101024238987e+01
-4.436102589415899189e+00,-2.869314224138090896e+00,2.001134100659079706e+01
-3.685047009460519440e+00,-3.356154534965920977e+00,2.001134098716809362e+01
-2.898708911992645909e+00,-3.709585242143553341e+00,2.001134092150697796e+01
-2.105935210066763652e+00,-3.949295017789186790e+00,2.001134093943413816e+01
-1.321525303911134763e+00,-4.061690956391860396e+00,2.001134092679357934e+01
-5.739693831421012193e-01,-4.062562129291935165e+00,2.001134092845209267e+01
9.191228552678543107e-02,-3.999268954666710396e+00,2.001134093117392254e+01
6.395892008499204362e-01,-3.933317511951643919e+00,2.001134093645995549e+01
1.156387332081274089e+00,-3.942040852079870206e+00,2.001134092155615818e+01
1.748965871005526029e+00,-3.974370191782660378e+00,2.001134091440631124e+01
2.466247614085177453e+00,-3.974996521911467795e+00,2.001134095643299560e+01
3.298395089965964644e+00,-3.875464954781123517e+00,2.001134095545246439e+01
4.197787254629636422e+00,-3.637871256120997376e+00,2.001134094650051409e+01
5.117581427803066241e+00,-3.216809452682015458e+00,2.001134098694485530e+01
6.010064881673392811e+00,-2.595228509010760742e+00,2.001134100571597685e+01
6.796058401145502081e+00,-1.700872290565887512e+00,2.001134101210040939e+01
7.396015501452037455e+00,-5.567696046151680012e-01,2.001134102049615393e+01
7.764586842214634466e+00,7.613345441246690548e-01,2.001134103674776554e+01
7.816555768369254587e+00,2.169283883783236000e+00,2.001134101801131493e+01
7.528113357997603394e+00,3.560305172559111497e+00,2.001134101686918854e+01
6.910351863961170515e+00,4.900707911227167202e+00,2.001134096471322721e+01
5.184125587835048066e+00,4.425715666117779001e+00,1.816856177328210009e+01
4.499008637886660722e+00,5.101328637808677513e+00,1.816897634522239002e+01
3.571628968797015080e+00,5.691378955626599456e+00,1.816854538771627148e+01
2.564677726863948681e+00,6.116512219316954102e+00,1.816875483141737391e+01
1.636192421690594756e+00,6.350282708403721443e+00,1.816906597817961355e+01
6.699561050151451314e-01,6.482685780607234882e+00,1.816924503360013787e+01
-3.214874873215246565e-01,6.502354200277306262e+00,1.816856417448545002e+01
-1.314515506476054973e+00,6.337018749548232854e+00,1.816869463664178852e+01
-2.355684423995346943e+00,6.022243500215763490e+00,1.816767917189007164e+01
-3.322475219967999216e+00,5.535606059704615056e+00,1.816889862713840387e+01
-4.127060366736122532e+00,4.860786697908671350e+00,1.816933934924161065e+01
-4.801348808165547766e+00,4.114713927564426221e+00,1.816925808661070363e+01
-5.355413506662764611e+00,3.371806517986132068e+00,1.816922742449413519e+01
-5.754576271787934516e+00,2.424012725604782759e+00,1.816821963833156772e+01
-6.040128590391319996e+00,1.359174910941935099e+00,1.816874473064493500e+01
-6.168817221298932729e+00,2.280619082675628961e-01,1.816849054478148062e+01
-6.091429218570806547e+00,-9.018494809231203391e-01,1.816818409900290732e+01
-5.828037896891008707e+00,-1.905967639874687425e+00,1.816832724223508322e+01
-5.477656567207660032e+00,-2.871768769364718477e+00,1.816929810200915441e+01
-4.993895322932358383e+00,-3.756521177984654791e+00,1.816968336672989892e+01
-4.349278011749641237e+00,-4.533998990022727327e+00,1.816981817805661237e+01
-3.447901567632344566e+00,-5.159482353713872982e+00,1.816870988542273579e+01
-2.712011972457699649e+00,-5.586140327530289440e+00,1.816824496118029941e+01
-1.862781923739181167e+00,-5.953502552021762817e+00,1.816903496235778448e+01
-8.501880879398533430e-01,-6.122705620815337646e+00,1.816907976651767598e+01
-7.749511309077655730e-02,-6.179075458836478241e+00,1.816792501026550255e+01
8.075885888831302317e-01,-6.299685031691685921e+00,1.816847973389583615e+01
1.719313848241474707e+00,-6.220101947504398154e+00,1.816917446358754873e+01
2.635953527531567531e+00,-6.053831755702955064e+00,1.816891442382842570e+01
3.497519434802367488e+00,-5.670723785905963155e+00,1.816904251102826606e+01
4.300873203070343820e+00,-5.147888614040180499e+00,1.816950238693257802e+01
5.045751451322566083e+00,-4.500022593628838052e+00,1.816885936594619011e+01
5.900700871373311784e+00,-3.771127935620584903e+00,1.816875322821454475e+01
6.500737069231474763e+00,-2.849283277936799141e+00,1.816823057242226724e+01
6.941040958041168274e+00,-1.779926270845372693e+00,1.816862878261378000e+01
7.286264145968992523e+00,-6.345392590573930569e-01,1.816809381627364672e+01
7.259514402561864088e+00,6.106853948415289501e-01,1.816785817380434409e+01
6.989447077824056720e+00,1.751345640858920305e+00,1.816885607776949030e+01
6.477576631403482388e+00,2.769653784090492898e+00,1.816914521729979981e+01
5.838668079988674542e+00,3.664880836841466927e+00,1.816867842693582702e+01
4.865987762589647936e+00,3.902049830584537915e+00,1.632622007090206750e+01
4.217947840525678060e+00,4.488706424727755717e+00,1.632566399416061742e+01
3.387831133552309026e+00,4.992990814317463943e+00,1.632640246361449954e+01
2.481810378613454215e+00,5.381341364141280614e+00,1.632628106034017534e+01
1.676495034667532469e+00,5.587513280823569239e+00,1.632662253721679946e+01
8.411144111861920125e-01,5.808417145483279143e+00,1.632659672252909999e+01
-4.027506099410227414e-02,5.840901598288705365e+00,1.632730793979131434e+01
-9.342560694639252539e-01,5.704199969341347654e+00,1.632655827325196540e+01
-1.882400891385197061e+00,5.443397309212904212e+00,1.632637115707124309e+01
-2.776287290612095227e+00,4.988328745228851169e+00,1.632646209875399279e+01
-3.530656210238317882e+00,4.421277825711465326e+00,1.632568221684693910e+01
-4.193775701495276564e+00,3.739183242274585872e+00,1.632629964255691846e+01
-4.748795737699859743e+00,3.108013269604720463e+00,1.632585019290819517e+01
-5.222051312567660197e+00,2.199321667328537178e+00,1.632538941226741969e+01
-5.671844406726052945e+00,1.182243678020939548e+00,1.632662941555030400e+01
-5.938975912841251592e+00,5.529757962270209770e-02,1.632700500351432638e+01
-6.015291451324037197e+00,-1.096450299225383285e+00,1.632654835092473533e+01
-5.850833957440416455e+00,-2.142954987113102394e+00,1.632611997749316757e+01
-5.583283313626128397e+00,-3.176145099597290411e+00,1.632587832065840772e+01
-5.124135030840758276e+00,-4.142480253832224513e+00,1.632615939527299886e+01
-4.418948074991872588e+00,-4.976992561273684501e+00,1.632577389390440814e+01
-3.545926422496487262e+00,-5.792195860146999387e+00,1.632572894452736634e+01
-2.784565531385902126e+00,-6.298722928232495022e+00,1.632572345428607719e+01
-1.887498165695397745e+00,-6.765190541340547981e+00,1.632599132810430120e+01
-7.802232556039807587e-01,-7.032493188491719671e+00,1.632637943554158255e+01
3.559659434635431552e-02,-7.263311477769573976e+00,1.632735295639949769e+01
1.015075395751526166e+00,-7.304955147461767773e+00,1.632706997096793700e+01
2.062213352803216715e+00,-7.156580034869884699e+00,1.632626753945590536e+01
3.061761570348601857e+00,-6.879021778630335149e+00,1.632572760628674402e+01
3.938694375698953642e+00,-6.354814152867771071e+00,1.632570626743854802e+01
4.705821494938746241e+00,-5.650082501817953684e+00,1.632561863312408690e+01
5.394317204676253752e+00,-4.874536921985606952e+00,1.632622923212506905e+01
6.086019621561760573e+00,-4.016532118953667130e+00,1.632615637397382002e+01
6.562483886276667455e+00,-3.020952145477027617e+00,1.632655080072031595e+01
6.919419965515816173e+00,-1.941737305648210121e+00,1.632593765161501054e+01
7.115001733568491638e+00,-7.892756354305126010e-01,1.632639023562821734e+01
6.977721674955914999e+00,4.262386097344503799e-01,1.632713033233603639e+01
6.613632680266346320e+00,1.477746197038783293e+00,1.632609282505976367e+01
6.138575047996727818e+00,2.413456526112338185e+00,1.632570761182775243e+01
5.514750014124674138e+00,3.222934260428893083e+00,1.632625553861811341e+01
4.945532093469786616e+00,3.240511823218979792e+00,1.448368064418277434e+01
4.342582762616750358e+00,3.833877101043408508e+00,1.448321905893496186e+01
3.592731237350700990e+00,4.314949482821453408e+00,1.448292679283409967e+01
2.786290898227885116e+00,4.733394953895478707e+00,1.448336807145830107e+01
2.006609529993609087e+00,4.990004051765017046e+00,1.448342395404703353e+01
1.186190464481065021e+00,5.167463425589544634e+00,1.448298381919643774e+01
3.284478194737364687e-01,5.183486409611725243e+00,1.448209382839021409e+01
-5.574532925912883963e-01,5.158247974288404869e+00,1.448305626122695067e+01
-1.447747177246578421e+00,4.876055371004397898e+00,1.448379539063608767e+01
-2.324763464703018645e+00,4.467278415587434104e+00,1.448333505195016002e+01
-3.119735093780014346e+00,3.975056319797719784e+00,1.448312806651165197e+01
-3.832241493236568708e+00,3.328805760473930064e+00,1.448368782434719293e+01
-4.458482394898577006e+00,2.655309565531744020e+00,1.448338162253994277e+01
-5.058564716696836605e+00,1.842274700938445697e+00,1.448354618410449923e+01
-5.545402445620512211e+00,8.298998022657219087e-01,1.448406480993217471e+01
-5.980318783811987338e+00,-3.055316915668772060e-01,1.448358805688784656e+01
-6.180748987863451838e+00,-1.488909052665503108e+00,1.448293523503839708e+01
-6.158190431769843265e+00,-2.650577650318202583e+00,1.448330623962494634e+01
-5.944292127413069338e+00,-3.806627745004182994e+00,1.448329649578868761e+01
-5.527859472417964604e+00,-4.928294795465276046e+00,1.448360666549677589e+01
-4.909672907017493593e+00,-6.001355019966391424e+00,1.448365941523283595e+01
-4.005956025528998765e+00,-6.920818089894049230e+00,1.448377370414241305e+01
-3.134130099075888687e+00,-7.603954869252384619e+00,1.448388623283014454e+01
-2.049491502302377643e+00,-8.132119921390689399e+00,1.448321971846281109e+01
-8.249443843457056058e-01,-8.390892892907572786e+00,1.448234647933891139e+01
1.785267244539188725e-01,-8.492172738409388799e+00,1.448260257450556487e+01
1.324702844971962223e+00,-8.354799253613171217e+00,1.448328132967699311e+01
2.439607454101754058e+00,-8.038861759430414367e+00,1.448391690670590748e+01
3.463132950769536311e+00,-7.553033185723237786e+00,1.448317634529301401e+01
4.294437667394990221e+00,-6.851437789852019122e+00,1.448257444306043418e+01
4.997662215360503701e+00,-6.052033792006638713e+00,1.448309194518112797e+01
5.596486634020024553e+00,-5.195090573052136840e+00,1.448338574990859406e+01
6.145056886519259187e+00,-4.303658924734280689e+00,1.448335745842709521e+01
6.555912418219473459e+00,-3.341326845324823935e+00,1.448366638285419938e+01
6.853637256747306061e+00,-2.309609198724756673e+00,1.448351176281212460e+01
6.956080536992904406e+00,-1.212724672866306364e+00,1.448443481847908210e+01
6.784107045395204594e+00,-9.024305352476047482e-02,1.448378423665366022e+01
6.508910727875938385e+00,8.940464401670682459e-01,1.448332564775506093e+01
6.098104369678160275e+00,1.783016155609543407e+00,1.448396723336386493e+01
5.547932960345979048e+00,2.567893184942361628e+00,1.448380953528768345e+01
4.981814177372103636e+00,2.571729876675752813e+00,1.263851405603249667e+01
4.386138616442564420e+00,3.185882314446500718e+00,1.264013790201751775e+01
3.686668688015249273e+00,3.648716343402148343e+00,1.264161838172834074e+01
2.953147419211674229e+00,4.095021500374765644e+00,1.264133909810785994e+01
2.160261331991820910e+00,4.315935640275434082e+00,1.264064733683209774e+01
1.322603815190273924e+00,4.517925210370091094e+00,1.264032470838886901e+01
4.322194641038842322e-01,4.595415691735704300e+00,1.264129297546989150e+01
-3.973488787851033877e-01,4.516197718452932719e+00,1.264143480419398458e+01
-1.300218873199821434e+00,4.297817587642127179e+00,1.264087090174680128e+01
-2.186148003119263716e+00,3.957297482153582013e+00,1.264069954526505057e+01
-3.049556431258872990e+00,3.498964011998843660e+00,1.264119841137817879e+01
-3.831021880053401940e+00,2.916820194118125542e+00,1.264159307532130505e+01
-4.548981176164526019e+00,2.192497523107393320e+00,1.264131105986741943e+01
-5.224692538917778961e+00,1.337225139770443105e+00,1.264112344188513859e+01
-5.755570262241436197e+00,3.570932066758283341e-01,1.264039057127008192e+01
-6.233931147767546754e+00,-7.626032409225252939e-01,1.263996324729611054e+01
-6.529878949407955879e+00,-1.954896710555007466e+00,1.264116063331809769e+01
-6.565296874754871226e+00,-3.197423432791336673e+00,1.264110846377078978e+01
-6.349114039333904280e+00,-4.446200805317363169e+00,1.264082060244745698e+01
-5.873965497793433244e+00,-5.661311156370610220e+00,1.264124817785539179e+01
-5.279693290705973929e+00,-6.844282988105183207e+00,1.264083341655261350e+01
-4.440136820215553115e+00,-7.858654525873695285e+00,1.264068561848223204e+01
-3.411611467711147760e+00,-8.612175200674709430e+00,1.264050864406690167e+01
-2.268948928796585385e+00,-9.167121313366305202e+00,1.264056839380860531e+01
-1.072695492704262232e+00,-9.455695820664441698e+00,1.264071157525488687e+01
1.740123045560917348e-01,-9.430274277552957329e+00,1.263967394160133040e+01
1.407592618661319683e+00,-9.119147770750004156e+00,1.263943294419077290e+01
2.548336312086681321e+00,-8.691678073462945520e+00,1.264058148452367192e+01
3.547702261459392492e+00,-8.080557578137659291e+00,1.264126233486769557e+01
4.364023188221831440e+00,-7.324189812281024281e+00,1.264106983393336670e+01
5.078078022247885848e+00,-6.521517468629363989e+00,1.264038837091166556e+01
5.691327781146557463e+00,-5.653643128715287958e+00,1.264058250651189752e+01
6.178961018794807636e+00,-4.760402109507599455e+00,1.264076129374663537e+01
6.582549003461855897e+00,-3.820179028995341675e+00,1.264116066727756760e+01
6.873752588125606522e+00,-2.825977403670626664e+00,1.264140492555593198e+01
6.923590942661168590e+00,-1.739102247623850239e+00,1.264199461783929124e+01
6.770058464782224839e+00,-7.039959122535837110e-01,1.264084700345867418e+01
6.483531776694281490e+00,2.610632416735714223e-01,1.264006259241625507e+01
6.058459617237538453e+00,1.123172865933637521e+00,1.264050108384729221e+01
5.550948405402608365e+00,1.879898099263986655e+00,1.263932324638129323e+01
4.597729524988577232e+00,2.157214877148585064e+00,1.079932533790062976e+01
3.952493524857902951e+00,2.690237457559759182e+00,1.079929141255038516e+01
3.363345824670764372e+00,3.175091765196542681e+00,1.079775571681934032e+01
2.736005948125552312e+00,3.589098964492698496e+00,1.079761923587248162e+01
1.973657774513446261e+00,3.845117410387858925e+00,1.079797271361287159e+01
1.167127300778698418e+00,4.018953232874862280e+00,1.079740283217396346e+01
3.325829156909522188e-01,4.055772519827897327e+00,1.079698302905633511e+01
-4.990124312955063202e-01,4.042342241764515620e+00,1.079866261807475958e+01
-1.387456554890654559e+00,3.876696487580592709e+00,1.079950790248592440e+01
-2.262780431574087814e+00,3.583297411654877695e+00,1.079847514908166239e+01
-3.122035585672337632e+00,3.156721834920177550e+00,1.079797175256579678e+01
-3.924919108132175261e+00,2.615047677291452377e+00,1.079852979927888157e+01
-4.663683312854620233e+00,1.856491879047077243e+00,1.079838643896800399e+01
-5.348553886787571265e+00,9.846712084476287874e-01,1.079912066974113394e+01
-5.876031838420485265e+00,5.337855637031041489e-02,1.079897884480095271e+01
-6.333786838131220343e+00,-1.013966493355716425e+00,1.079791121657890507e+01
-6.658893927133561874e+00,-2.136699084611298982e+00,1.079823017268302365e+01
-6.709508225364878342e+00,-3.399075495537765779e+00,1.079823778512496801e+01
-6.512734654283304891e+00,-4.666782752956784464e+00,1.079932544354315027e+01
-6.121823846155736604e+00,-5.898792874122040786e+00,1.079926849202557371e+01
-5.528325379550607543e+00,-7.072368629287185016e+00,1.079724970125836769e+01
-4.744496695525371344e+00,-8.077799481244074542e+00,1.079813944790893920e+01
-3.657119995038776938e+00,-8.904527748929790931e+00,1.079843500163840453e+01
-2.481969068197420025e+00,-9.463265602823589973e+00,1.079896847588474174e+01
-1.370305217466352588e+00,-9.785199624632484827e+00,1.079822371072308229e+01
2.380793633934558118e-02,-9.751311564559349776e+00,1.079825140586425114e+01
1.269532059364541610e+00,-9.440495345680275818e+00,1.079743610143283306e+01
2.418988949884161244e+00,-9.035026134944086351e+00,1.079827858183116263e+01
3.445158997208536800e+00,-8.395932190870588840e+00,1.079883444202986098e+01
4.334384790545819044e+00,-7.648298103174080431e+00,1.079850622342801536e+01
5.118073487223951723e+00,-6.821889725930405213e+00,1.079868363922962615e+01
5.718006289021849931e+00,-5.895590068947305973e+00,1.079781356477887932e+01
6.177641706197548821e+00,-4.939411898851506777e+00,1.079780901867988874e+01
6.561662535666206608e+00,-3.955947880033681585e+00,1.079829351905248735e+01
6.750998405278592962e+00,-2.909378274377295348e+00,1.079851588902926451e+01
6.767844669368798804e+00,-1.868955915635407639e+00,1.079818509596283072e+01
6.600371372488820221e+00,-8.906639003366267904e-01,1.079834003326839387e+01
6.260672758232123769e+00,3.170995020837796829e-02,1.079807459844791673e+01
5.786873148418179902e+00,8.473376349843042554e-01,1.079893719088194537e+01
5.245959451844131038e+00,1.555483272436195552e+00,1.079908530672269329e+01
4.424490569131145357e+00,1.718065325473175253e+00,8.955122035634355271e+00
3.808163039911973691e+00,2.291392402457478994e+00,8.955691751776273080e+00
3.269821275321565857e+00,2.765917108407292435e+00,8.955452209118897500e+00
2.663417277336960431e+00,3.177008565023232034e+00,8.955479728888372293e+00
1.935825811884865910e+00,3.438895701779814740e+00,8.956118109892598156e+00
1.158305673136756919e+00,3.593058431736739777e+00,8.956131429586408288e+00
3.163303725333413974e-01,3.676498639429210513e+00,8.955969466520864231e+00
-5.450397899725339945e-01,3.739957464595771164e+00,8.956487074061556086e+00
-1.408761901302820974e+00,3.637410903185919864e+00,8.956178748945811563e+00
-2.285369027949118781e+00,3.375030436109724974e+00,8.955558565613339184e+00
-3.174025000302994837e+00,2.962608879169494003e+00,8.956136281655174614e+00
-4.004058391813528850e+00,2.432287118224367273e+00,8.956879607317771885e+00
-4.796362748990951275e+00,1.662210842192163751e+00,8.956981728956767697e+00
-5.456849811318070564e+00,7.805608250269555626e-01,8.956376071107262860e+00
-6.025397735530686916e+00,-1.602936591378663067e-01,8.955253659293340718e+00
-6.454018708829392992e+00,-1.204518500032536021e+00,8.955042595554278506e+00
-6.758463393426283439e+00,-2.324131372245458405e+00,8.955551010628706621e+00
-6.856277475686330725e+00,-3.596708744469923946e+00,8.955245358694590152e+00
-6.694904695237680947e+00,-4.884570996390516839e+00,8.954811292503777054e+00
-6.286897169643719252e+00,-6.125720243265019072e+00,8.954823201504483521e+00
-5.644168174320664200e+00,-7.268039730753169891e+00,8.956085419895448041e+00
-4.914530734469498618e+00,-8.317986380823368719e+00,8.955922706878308048e+00
-3.806965287111582885e+00,-9.201561112153875399e+00,8.955244956174094995e+00
