-2.367531389805011433e+00,-1.038278160311556952e+01,-9.878821747323223157e-01
-4.812863824436124371e-01,-1.061150944389557260e+01,-9.883479857782028200e-01
1.428227617025688456e+00,-1.045187200783296078e+01,-9.887444502394060475e-01
3.337903689079107838e+00,-9.888875561553305715e+00,-9.890994856761120557e-01
5.068540279367058865e+00,-9.023378658183190737e+00,-9.886744133681403257e-01
6.486641387101159673e+00,-7.997915125451887874e+00,-9.883098991483755258e-01
7.699143328881341120e+00,-6.887230560163052573e+00,-9.884297762496857542e-01
8.744000178876877527e+00,-5.611409935246927105e+00,-9.884809358888891895e-01
9.549449614891610594e+00,-4.168776929923025065e+00,-9.884630552143062188e-01
1.013131989604878314e+01,-2.616957736057157646e+00,-9.886366103914620007e-01
1.044771560051255044e+01,-9.661207072570593413e-01,-9.880906802294017188e-01
1.049115101085741664e+01,6.270910690372534235e-01,-9.885062047683879083e-01
1.029441228648589401e+01,2.206846015959069707e+00,-9.885448103941187892e-01
9.893890676662808303e+00,3.628378031937942616e+00,-9.878169657872789555e-01
9.337092625532402934e+00,4.929834741910706697e+00,-9.877554147159252063e-01
8.581763860564082691e+00,6.156854974192591534e+00,-9.882702033941557218e-01
7.653190182876776326e+00,7.000608356781792274e+00,-3.069610781500061947e+00
6.682906411523768853e+00,8.030238806781353489e+00,-3.069764630674222339e+00
5.497631704016284537e+00,8.912897994257676260e+00,-3.069348041475635558e+00
4.089900298669405743e+00,9.606303528737742070e+00,-3.069099569966811991e+00
2.550748062191058096e+00,1.008903178405594048e+01,-3.070129973730549633e+00
9.506907099788495241e-01,1.032405986739628290e+01,-3.070957658851781957e+00
-6.419727519121289916e-01,1.032370690884370745e+01,-3.070562582288749898e+00
-2.216771529681499153e+00,1.015016971331704987e+01,-3.069027766985990446e+00
-3.803609138420446456e+00,9.681577873561518999e+00,-3.070586713029417769e+00
-5.286587954565098002e+00,8.966097086235656377e+00,-3.070666729294330377e+00
-6.677815430543010855e+00,8.062877503532899226e+00,-3.069896525799558962e+00
-7.857787207855745137e+00,6.912970525686734646e+00,-3.069555890071920423e+00
-8.820411611596902901e+00,5.584056254731238234e+00,-3.070872630721671825e+00
-9.564055145867776275e+00,4.124871794752217546e+00,-3.071059976025861449e+00
-1.005815140950859110e+01,2.587517253742217527e+00,-3.070292792010777649e+00
-1.031973144113470653e+01,1.018613194542933975e+00,-3.070843805483834732e+00
-1.037841239471849875e+01,-5.624982371954269089e-01,-3.071084896194726799e+00
-1.016210031329678110e+01,-2.103672215633037190e+00,-3.070166677910765696e+00
-9.682215756425351927e+00,-3.543077465204744758e+00,-3.070141735361309632e+00
-8.992212767346899227e+00,-4.951735485630828215e+00,-3.070980791025942125e+00
-8.123659728426130044e+00,-6.356538489332058006e+00,-3.070504453375895171e+00
-7.078471863052659963e+00,-7.585656678409862685e+00,-3.070822089041307823e+00
-5.738226712286524922e+00,-8.597120725950714970e+00,-3.069899891636336697e+00
-4.163299992291407570e+00,-9.381797344173312680e+00,-3.069752765645257231e+00
-2.406054827564976240e+00,-9.900059504976825409e+00,-3.069887719341663601e+00
-6.170261099284206630e-01,-1.014765810101323140e+01,-3.070133413171299175e+00
1.208624478489893628e+00,-1.003047799772602922e+01,-3.070094999182085616e+00
3.043695566953289688e+00,-9.567766635782483320e+00,-3.070811576464871795e+00
4.738412365819098859e+00,-8.762688310643536482e+00,-3.070400549682708924e+00
6.146079609228001672e+00,-7.752215420702814441e+00,-3.069628489225870283e+00
7.354606177607247552e+00,-6.710743913716932241e+00,-3.070771663137005447e+00
8.432006210713179684e+00,-5.572548720482211948e+00,-3.070333532007822441e+00
9.225172720837960583e+00,-4.179582756647683084e+00,-3.070881986256092322e+00
9.763037284354419754e+00,-2.643590640886559484e+00,-3.070665127055784538e+00
1.009166101643435987e+01,-1.051980133593922506e+00,-3.070498753812070269e+00
1.014394833575288857e+01,4.903443989952724902e-01,-3.070607057671643325e+00
9.996370458422866534e+00,1.995318859960029112e+00,-3.070179419083014505e+00
9.650917913778055635e+00,3.371854790492800458e+00,-3.069851945037336716e+00
9.139567849296895474e+00,4.650327355502768434e+00,-3.069533786024938316e+00
8.468733633476370315e+00,5.868978364447178464e+00,-3.069456185103779156e+00
7.721007755303196163e+00,6.568594405592492080e+00,-5.150739458467232801e+00
6.852007111638251047e+00,7.629410796627634994e+00,-5.151830343467293183e+00
5.577572032124298751e+00,8.580974294862368623e+00,-5.151427326209257807e+00
4.140796416300051241e+00,9.338212319473237599e+00,-5.151239514469025949e+00
2.606668199306018785e+00,9.870687347822542534e+00,-5.152130930098056005e+00
9.787065072698182266e-01,1.011876959467593728e+01,-5.151666909348815437e+00
-6.268767928859599881e-01,1.012031724331252214e+01,-5.151494414296450053e+00
-2.254888727258802295e+00,9.876023281321568703e+00,-5.152454862155454229e+00
-3.807938951450642318e+00,9.368737187740256545e+00,-5.152933539750256031e+00
-5.241392515347399694e+00,8.674107588773093624e+00,-5.151651594654009791e+00
-6.565480790787540322e+00,7.766290549441381863e+00,-5.151288411751989926e+00
-7.682103025078660608e+00,6.623995751791118991e+00,-5.151318936493069600e+00
-8.568050195760758214e+00,5.311631151302332654e+00,-5.152271717785227523e+00
-9.223561109371416933e+00,3.876741664768668993e+00,-5.152804018875006165e+00
-9.661378729673419485e+00,2.401371668346488963e+00,-5.152027153024950401e+00
-9.856012386123806479e+00,9.021542086825327100e-01,-5.150516747246870253e+00
-9.887166944738874363e+00,-6.340148690928930630e-01,-5.151421822324055988e+00
-9.645329528387771134e+00,-2.089297150807488013e+00,-5.151535458306461202e+00
-9.133962283717785624e+00,-3.448795279733330776e+00,-5.151574008341309963e+00
-8.475043128563624961e+00,-4.751534759536251151e+00,-5.151557675027343741e+00
-7.676896843488690614e+00,-6.055132134903155716e+00,-5.150401155948285847e+00
-6.729001346321279442e+00,-7.188380749840563411e+00,-5.150855454877430795e+00
-5.547884782847305019e+00,-8.108785834095167289e+00,-5.151588942527250303e+00
-4.204005053057880303e+00,-8.870573479886120438e+00,-5.151103245243477957e+00
-2.667310447084753289e+00,-9.428396998606523027e+00,-5.152034133868439447e+00
-8.202767652292344280e-01,-9.668133762337010495e+00,-5.152067614126723427e+00
9.524453865344363335e-01,-9.579332021407344300e+00,-5.152109128980628228e+00
2.696746046656262497e+00,-9.215501041234842816e+00,-5.151764480912234490e+00
4.330302644599367312e+00,-8.513301967934680192e+00,-5.151471032170926279e+00
5.788979457734376055e+00,-7.578287223614840862e+00,-5.152092533739229374e+00
6.984108547573562475e+00,-6.583348222394194593e+00,-5.152279436019279402e+00
8.034389685474192078e+00,-5.547745588491042490e+00,-5.152126922049576230e+00
8.805772481553804099e+00,-4.203017418141117290e+00,-5.151632415352871419e+00
9.369026442432677015e+00,-2.701778957011626403e+00,-5.152223154870737787e+00
9.688881893653897848e+00,-1.171815963516861459e+00,-5.152626004703937390e+00
9.738564675659867831e+00,2.796181641396138784e-01,-5.151700996962603973e+00
9.645614637472592179e+00,1.642360782617940718e+00,-5.151422263642766453e+00
9.301451283388024294e+00,3.064170140321319291e+00,-5.151437919499442408e+00
8.852008033517623886e+00,4.317556967300507864e+00,-5.151596530001971708e+00
8.336928047950529219e+00,5.470760218922916529e+00,-5.151031654851362163e+00
7.418599224607281606e+00,6.094739484693421083e+00,-7.232976996421990101e+00
6.416366152609924711e+00,7.206029474713867344e+00,-7.233761248008183209e+00
5.189025014749272913e+00,8.102192052767787089e+00,-7.232712896731910313e+00
3.830358854167533522e+00,8.830223256894468520e+00,-7.232201505300316136e+00
2.371386004618979193e+00,9.384081582029040192e+00,-7.233099938780846117e+00
8.138530381648911849e-01,9.616384981145218447e+00,-7.233428221696926563e+00
-7.513284727877634905e-01,9.617543925088467560e+00,-7.233785019440727382e+00
-2.285010901190809740e+00,9.362938043633475260e+00,-7.234226530534120236e+00
-3.764838518094247188e+00,8.873289289219405518e+00,-7.233831971226018176e+00
-5.136248913521989756e+00,8.212352237872867278e+00,-7.233197228636954357e+00
-6.398257193428650957e+00,7.329926872982214014e+00,-7.233941534365881942e+00
-7.455426571863190688e+00,6.207753454153169592e+00,-7.233921793479411555e+00
-8.239365571116254117e+00,4.918185344580235707e+00,-7.232916722221638395e+00
-8.804367000721153858e+00,3.535526967905906037e+00,-7.232376517269774041e+00
-9.172770150767419750e+00,2.144731387163477443e+00,-7.232272971839808662e+00
-9.306066716440879460e+00,7.335999953842197163e-01,-7.231707564043636793e+00
-9.293396125924022755e+00,-7.024357607695579375e-01,-7.232734375038751828e+00
-9.005770994378691441e+00,-2.079172166247172271e+00,-7.232841523928691174e+00
-8.518440045618618228e+00,-3.356221196467091605e+00,-7.232831432096685553e+00
-7.873604743218630908e+00,-4.610755696260040892e+00,-7.233901342046881844e+00
-7.106368672254882668e+00,-5.783208583556607607e+00,-7.232844102651033502e+00
-6.190069022428340340e+00,-6.822058130029478917e+00,-7.233256508942599083e+00
-5.094427502267676822e+00,-7.669056263428083220e+00,-7.233726213927669235e+00
-3.887533309211213872e+00,-8.368953548911738594e+00,-7.233251207044319564e+00
-2.516897318739937717e+00,-8.880107640790113166e+00,-7.233653477576493351e+00
-1.005724328753164754e+00,-9.170647613440916501e+00,-7.233673200770260436e+00
6.946435454083956795e-01,-9.120618170025601046e+00,-7.232991870674401191e+00
2.373092741524598370e+00,-8.758298112454703244e+00,-7.232865539566738278e+00
3.901747323454195726e+00,-8.185152912299100691e+00,-7.232845998676949328e+00
5.309225479805933290e+00,-7.400278401778630055e+00,-7.232908295616781835e+00
6.522614011237532594e+00,-6.433091412346583660e+00,-7.233119452007243488e+00
7.546008650793672778e+00,-5.479759839540296440e+00,-7.234193020593832735e+00
8.311439872540280049e+00,-4.224700466873270166e+00,-7.233006870790489096e+00
8.848033138896381544e+00,-2.743017858892178307e+00,-7.233340239706636865e+00
9.131872699488180700e+00,-1.272721559275314718e+00,-7.233613724148584723e+00
9.211581972192506740e+00,9.321213478767062521e-03,-7.233248113318174966e+00
9.110225339837823455e+00,1.355088879763224341e+00,-7.233192368682670903e+00
8.783190124077114191e+00,2.697557665620648137e+00,-7.232781658580709205e+00
8.494429932744287370e+00,3.811989343848188661e+00,-7.232648114557653329e+00
8.137616453764238145e+00,4.893923698234511122e+00,-7.232492295058595921e+00
6.564686767192629446e+00,5.675198480982011517e+00,-9.314451045926794848e+00
5.675689374752840521e+00,6.674652110672062655e+00,-9.313988134472424463e+00
4.565383577814809968e+00,7.452650680371006864e+00,-9.315020475919103760e+00
3.345338282435973198e+00,8.096970366472419300e+00,-9.315165152402091309e+00
2.015156072382533914e+00,8.613364716929591935e+00,-9.314407726537035970e+00
5.915945518902994138e-01,8.822273906482182682e+00,-9.314533962569145231e+00
-8.813566219575319494e-01,8.811243680528106026e+00,-9.314456008299710987e+00
-2.275545775924366243e+00,8.562690620558436549e+00,-9.314606896513421219e+00
-3.634508789808094775e+00,8.128560143244900615e+00,-9.315671843850411804e+00
-4.909683576499168645e+00,7.508673829202040295e+00,-9.315776513185625163e+00
-6.067928182239635149e+00,6.661269448740123167e+00,-9.314550792873653506e+00
-7.009785717916716230e+00,5.613032841064754308e+00,-9.314020796908081934e+00
-7.728708912018070976e+00,4.412191497310522514e+00,-9.315179612649334473e+00
-8.211956082324276096e+00,3.119043347774498987e+00,-9.315767436584939887e+00
-8.534073833582917601e+00,1.830102219102705874e+00,-9.315171445375440840e+00
-8.655472149452871022e+00,5.095379991891507698e-01,-9.314955484456133306e+00
-8.623231320916572074e+00,-8.013501613631996978e-01,-9.314538306200773832e+00
-8.319811452402996466e+00,-2.089179716564209421e+00,-9.314506659853382331e+00
-7.832387464405893951e+00,-3.316302560392150767e+00,-9.315363941219260369e+00
-7.234624133665406909e+00,-4.464791358921588404e+00,-9.316023927929624193e+00
-6.500139462343962116e+00,-5.525863258199251504e+00,-9.315637401487432356e+00
-5.609809620465545876e+00,-6.454445372164540728e+00,-9.315598119447523473e+00
-4.596132357563670112e+00,-7.228822583339336916e+00,-9.315507025794579121e+00
-3.464858038811732044e+00,-7.853714890082045486e+00,-9.314239828562792312e+00
-2.200642379780402003e+00,-8.293251266887716966e+00,-9.314030210471596405e+00
-8.229972908452476421e-01,-8.510340989814931589e+00,-9.315204159240256132e+00
6.746349569450844630e-01,-8.496898657765527219e+00,-9.315020545393577933e+00
2.159959608599713032e+00,-8.179855571542601567e+00,-9.314438469072081617e+00
3.540194178111083723e+00,-7.687643047924588302e+00,-9.315008440624900743e+00
4.796985082916521037e+00,-7.048728291519035238e+00,-9.315818136252582704e+00
5.927802049920795291e+00,-6.226097086590634433e+00,-9.314830133690422898e+00
6.872622427409000423e+00,-5.267184552205852022e+00,-9.315087392657350307e+00
7.630295124990153610e+00,-4.120583135182246615e+00,-9.315425341554371741e+00
8.123908728743087337e+00,-2.730366658916075107e+00,-9.314373391482812181e+00
8.352853637339832105e+00,-1.349775190310378292e+00,-9.314397954117278999e+00
8.479962953940875181e+00,-2.032249523192788954e-01,-9.314310301952685833e+00
8.364615158902847014e+00,1.099624858353356993e+00,-9.314232981511622711e+00
8.102209155198114132e+00,2.293503900537191775e+00,-9.314980385058909462e+00
7.734529707020856293e+00,3.433782106418270530e+00,-9.315286905754676994e+00
7.218722400324326216e+00,4.587786809176483516e+00,-9.314772325134338615e+00
5.732988433906381687e+00,5.128238516335575703e+00,-1.139628422751066417e+01
4.914113105095394118e+00,6.004358998978728046e+00,-1.139657228578714410e+01
3.906295643755228308e+00,6.676237062249137821e+00,-1.139674023701309657e+01
2.791421051832682743e+00,7.207806307225527398e+00,-1.139678904927072800e+01
1.625351950889572183e+00,7.626039398666980773e+00,-1.139568681798154159e+01
3.553155863350145882e-01,7.821877357918749496e+00,-1.139511188605171199e+01
-9.518385570146767893e-01,7.793545812238673598e+00,-1.139608534980065535e+01
-2.223701870061796981e+00,7.566651752061250846e+00,-1.139623862088464712e+01
-3.417850855478778094e+00,7.198492734698941575e+00,-1.139579438326081018e+01
-4.582504731118491215e+00,6.641425082814440550e+00,-1.139606983585186484e+01
-5.613253580190477265e+00,5.867142643923804357e+00,-1.139607032339495163e+01
-6.462013898725960104e+00,4.911553506453572915e+00,-1.139648276703170104e+01
-7.130475153833208957e+00,3.842156943150195403e+00,-1.139663122385497296e+01
-7.529774070596173985e+00,2.651756768459338165e+00,-1.139665529027188562e+01
-7.817298515076880783e+00,1.473335693148321246e+00,-1.139574004535029061e+01
-7.959552501198823293e+00,2.733309668320569319e-01,-1.139556437372523412e+01
-7.930095308613006821e+00,-9.428039608544859229e-01,-1.139555259180821878e+01
-7.594680308246386069e+00,-2.151674483646528468e+00,-1.139499513944495668e+01
-7.088061443925098182e+00,-3.280874164633563961e+00,-1.139550082647724061e+01
-6.565882568751820969e+00,-4.296856144254787679e+00,-1.139530518455353736e+01
-5.858084501558657564e+00,-5.234694856923957751e+00,-1.139561579125081714e+01
-5.025775745399813310e+00,-6.065213838402407021e+00,-1.139643703989850465e+01
-4.070592540828943839e+00,-6.760872043446964241e+00,-1.139622775518157916e+01
-3.038729551664795192e+00,-7.312633748016048152e+00,-1.139565626963745082e+01
-1.849568687341144546e+00,-7.673703001896313936e+00,-1.139609483074277030e+01
-5.885340304490624952e-01,-7.808208913808935669e+00,-1.139665754111901919e+01
7.205009696391274643e-01,-7.804566278654167633e+00,-1.139562963514921101e+01
1.968803674876254073e+00,-7.568163105393348467e+00,-1.139663929227534922e+01
3.131243713344843638e+00,-7.176886904485996865e+00,-1.139661173104681069e+01
4.297809624007749463e+00,-6.648725804820196039e+00,-1.139577765041791046e+01
5.303501536065873267e+00,-5.947954230598003988e+00,-1.139584050832124973e+01
6.121201464071218012e+00,-4.947030518827308931e+00,-1.139584016141134803e+01
6.820195006042022001e+00,-3.888464339077159160e+00,-1.139554385895980460e+01
7.309271964514248765e+00,-2.639983808908870522e+00,-1.139674836924661960e+01
7.480457321258167092e+00,-1.376078339110847315e+00,-1.139617529691270725e+01
7.588341170790763535e+00,-3.451832350451378151e-01,-1.139559021727068888e+01
7.508623885477776483e+00,8.127651733930042477e-01,-1.139628055070172330e+01
7.254111994619852233e+00,1.955349307407679982e+00,-1.139566311809185173e+01
6.893587524219573659e+00,3.045177911382691782e+00,-1.139512842367429180e+01
6.381177913818921077e+00,4.121657738063748688e+00,-1.139530917354471207e+01
4.982916720146262080e+00,4.424249453244359032e+00,-1.347763449842522476e+01
4.235671961615492975e+00,5.194955825288222862e+00,-1.347854171110429355e+01
3.331274195701079410e+00,5.795204746329711831e+00,-1.347763249207553748e+01
2.289209788147663183e+00,6.217949330551415521e+00,-1.347752051891667158e+01
1.239477727822814401e+00,6.509970463879258595e+00,-1.347717586129473588e+01
1.623740971045080916e-01,6.665425773748703264e+00,-1.347654671827292283e+01
-9.775315032052127595e-01,6.651598592732504756e+00,-1.347684139954494853e+01
-2.072002973825878946e+00,6.439916663354739335e+00,-1.347725657952536871e+01
-3.115571432856726108e+00,6.136429041533188133e+00,-1.347752799498153919e+01
-4.153570408528236335e+00,5.680302628400688114e+00,-1.347738298051235972e+01
-5.069538724971531352e+00,5.012973022397245515e+00,-1.347720038553362443e+01
-5.832642323651435312e+00,4.168044456811271559e+00,-1.347776265885751101e+01
-6.436184009588171051e+00,3.216917232420231088e+00,-1.347766463719766250e+01
-6.770962689945645430e+00,2.155618879396496546e+00,-1.347765168868180652e+01
-7.046432095061334167e+00,1.101963906909536828e+00,-1.347768502736371765e+01
-7.213807282969263213e+00,2.796039408046191443e-02,-1.347729837930488017e+01
-7.128083199241910251e+00,-1.067113148827351310e+00,-1.347835206148762488e+01
-6.775841847330617007e+00,-2.175565670939609397e+00,-1.347786039784627832e+01
-6.314454080699561267e+00,-3.174197226723588727e+00,-1.347724894796529505e+01
-5.859832257454371529e+00,-4.074324389796521118e+00,-1.347821456871912993e+01
-5.193145706812465789e+00,-4.888280499846771043e+00,-1.347851990823149748e+01
-4.393357767262362046e+00,-5.622066575904947072e+00,-1.347845388178550685e+01
-3.559846592804076337e+00,-6.222783356614982608e+00,-1.347806027343562008e+01
-2.608427782443426324e+00,-6.701611047012966615e+00,-1.347838817537670053e+01
-1.539142898292328532e+00,-6.983296539643584211e+00,-1.347804607540580868e+01
-4.893478184873761849e-01,-7.111868878008623440e+00,-1.347664723479278948e+01
5.804658343546655885e-01,-7.140342380599923544e+00,-1.347781769299156984e+01
1.651821564093886252e+00,-6.966111951036772609e+00,-1.347773119866992353e+01
2.703002377851041693e+00,-6.617496782151039980e+00,-1.347789160698074973e+01
3.729655066033170652e+00,-6.143826833887478855e+00,-1.347814966696565264e+01
4.615594006525027382e+00,-5.530596289724099890e+00,-1.347714458132548465e+01
5.350337243309431834e+00,-4.545353705650985177e+00,-1.347746820240200449e+01
5.974273077464172133e+00,-3.579764512805763133e+00,-1.347772711978551641e+01
6.395294601199458917e+00,-2.492048753520234250e+00,-1.347780281034998673e+01
6.555856086857019704e+00,-1.366175663386116401e+00,-1.347819955667254632e+01
6.596035530423856486e+00,-4.248920489430519920e-01,-1.347868106783237785e+01
6.541786445293825913e+00,5.433143662103748772e-01,-1.347790914935699824e+01
6.352164540863316056e+00,1.571325657678323218e+00,-1.347810737289668381e+01
6.050372406140208881e+00,2.576056156619005222e+00,-1.347855461849546721e+01
5.591850312603964035e+00,3.533019926572134040e+00,-1.347755951052742596e+01
4.196377306147427433e+00,3.625702510044309879e+00,-1.556024156051947038e+01
3.538140325258459118e+00,4.288532233723778120e+00,-1.555950298306644086e+01
2.793282151523759360e+00,4.807301533933495463e+00,-1.555875599549450961e+01
1.898763339531899907e+00,5.126227553883203392e+00,-1.555986655699879506e+01
9.546247482598404499e-01,5.334185586989041994e+00,-1.555946359853293970e+01
8.791443692760157747e-03,5.437738359757142703e+00,-1.555761485789524379e+01
-9.429998032706901068e-01,5.428452296422778822e+00,-1.555985767157672051e+01
-1.834469151288003586e+00,5.261831539066129437e+00,-1.556014240050869368e+01
-2.741869414132705796e+00,5.005193546247270753e+00,-1.555891596546633160e+01
-3.634872777428811652e+00,4.625177789891194990e+00,-1.555822169282082967e+01
-4.420656560173370053e+00,4.081627667767341983e+00,-1.555861013945315463e+01
-5.078926250136084342e+00,3.378868821460200067e+00,-1.555889341076802879e+01
-5.619549348198304983e+00,2.560696321111340268e+00,-1.555896992305624593e+01
-5.912960732396729924e+00,1.642501552795015751e+00,-1.555938953590767504e+01
-6.151372212419640384e+00,7.402487860224554739e-01,-1.555906369409050249e+01
-6.339821628215124960e+00,-2.035764006625150335e-01,-1.555856664758979413e+01
-6.182157264391411999e+00,-1.152880889460175418e+00,-1.555890795807709281e+01
-5.841441514488492359e+00,-2.117904071508045050e+00,-1.555908806472317352e+01
-5.485099823901128602e+00,-2.963224496046419354e+00,-1.555789902361415145e+01
-5.091781524622939870e+00,-3.732373118744439999e+00,-1.555851425480975614e+01
-4.452254255257670934e+00,-4.427445329743883384e+00,-1.555891797990162928e+01
-3.756319097751203540e+00,-5.021325748051110871e+00,-1.555865099212964786e+01
-3.030034047439010614e+00,-5.539550343814352296e+00,-1.555979118406386341e+01
-2.218030972838196835e+00,-5.940571076257600502e+00,-1.555878751478676492e+01
-1.400945252348374748e+00,-6.180111852893805491e+00,-1.555803937616241051e+01
-5.447045301391926220e-01,-6.325204575883647706e+00,-1.555974123185603020e+01
4.175819787310007802e-01,-6.353424772286100364e+00,-1.555962894352536985e+01
1.347640096779793240e+00,-6.209369215593702584e+00,-1.555893476613932513e+01
2.258023015027652569e+00,-5.909074191999429182e+00,-1.555959809841058394e+01
3.113318485990049123e+00,-5.557298661443899057e+00,-1.555891716289267990e+01
3.880691473346033593e+00,-4.911554611912532842e+00,-1.555858687874428803e+01
4.488805645093401964e+00,-4.030265253050771435e+00,-1.555836028481705213e+01
5.063759760364929363e+00,-3.226098078431244964e+00,-1.555901506940541879e+01
5.471099293665673713e+00,-2.310066276358813120e+00,-1.555931660445533815e+01
5.565205467693162156e+00,-1.320746742559887554e+00,-1.555872195456273310e+01
5.501845341234256281e+00,-4.817843376769300190e-01,-1.555917784830236528e+01
5.475171607964651521e+00,3.109218530573666373e-01,-1.556007347100803706e+01
5.379020305770538357e+00,1.181660383071739817e+00,-1.555963292280785915e+01
5.147667911020112896e+00,2.066606549351364563e+00,-1.555942351401685642e+01
4.738854043454248988e+00,2.883103012844911994e+00,-1.555977075342705085e+01
3.288480397734461214e+00,2.717952062330321716e+00,-1.764154171142724437e+01
2.764352878554773962e+00,3.253674451710912408e+00,-1.764116479505897672e+01
2.184125801912720544e+00,3.681911179452331151e+00,-1.764065519473610166e+01
1.475199885776430353e+00,3.918145106505461328e+00,-1.764061232989129735e+01
7.275881937314521153e-01,4.062460538432330459e+00,-1.764047080779810628e+01
-4.526395115551155868e-02,4.151628362220477264e+00,-1.764068124693434214e+01
-8.479339899070965636e-01,4.142063831490511383e+00,-1.764062015660688587e+01
-1.549515055675922737e+00,3.993938463077434609e+00,-1.764157141444205124e+01
-2.250599027492313109e+00,3.792963589363496979e+00,-1.764104338479518930e+01
-2.982709817179893808e+00,3.485704143843826319e+00,-1.764057094073479703e+01
-3.624211872675786150e+00,3.078304603228965597e+00,-1.764095329795295441e+01
-4.181222254632173119e+00,2.531995909923370647e+00,-1.764047073329023263e+01
-4.627854914050962165e+00,1.869604403240691104e+00,-1.764088078544550697e+01
-4.864359382329170423e+00,1.113821471389658591e+00,-1.764114909226761796e+01
-5.171955761733551427e+00,3.840141367913907366e-01,-1.764081045964783456e+01
-5.213073165176900226e+00,-3.949754721441501859e-01,-1.764007345970391682e+01
-5.050328486722823307e+00,-1.157226141895368876e+00,-1.764037486755670869e+01
-4.772058766375979033e+00,-1.924084842012967700e+00,-1.764087129454082259e+01
-4.526765263859395816e+00,-2.605787039687340823e+00,-1.764044267543835076e+01
-4.174610857528455732e+00,-3.243304649628991232e+00,-1.764059387431684200e+01
-3.627377874868810359e+00,-3.792738915024509438e+00,-1.764086578483429335e+01
-3.066631586725502956e+00,-4.237116855873557242e+00,-1.764032880042862317e+01
-2.500061726114063632e+00,-4.658250439862278824e+00,-1.764111479625793066e+01
-1.903112239995014665e+00,-4.980769470666627896e+00,-1.764128206478233452e+01
-1.255330146551449477e+00,-5.172476277128543742e+00,-1.764067762827256658e+01
-5.356383867057693537e-01,-5.313530991184018504e+00,-1.763992814504521789e+01
2.601188287196783411e-01,-5.363084336488416426e+00,-1.764028823834420479e+01
1.029500661584078935e+00,-5.240507666047842683e+00,-1.764074906600090031e+01
1.754360666007056535e+00,-5.038967056968505887e+00,-1.764061303285633997e+01
2.463416338903203773e+00,-4.756123981460407713e+00,-1.764013336733030357e+01
3.089991218822135899e+00,-4.134436343140498238e+00,-1.764107286623234927e+01
3.569251577256955521e+00,-3.424902178210512460e+00,-1.764144676570940717e+01
4.014223205634406710e+00,-2.775834205175866209e+00,-1.764120261171638049e+01
4.382861068803067361e+00,-2.046769977370308080e+00,-1.764110088646693697e+01
4.468591862768374945e+00,-1.238983300987050340e+00,-1.764038750558303192e+01
4.363392115058066345e+00,-5.235523584268306774e-01,-1.763905550615358919e+01
4.265763074886359085e+00,1.026154562615291255e-01,-1.764005460785698531e+01
4.239218456098725163e+00,7.795325281403618911e-01,-1.764121378117428662e+01
4.091137446892997076e+00,1.494607238654835690e+00,-1.764148208196347056e+01
3.746117571184832684e+00,2.141246981593458276e+00,-1.764156202786684702e+01
2.182090499263784178e+00,1.632031952681062492e+00,-1.972222339109804423e+01
1.813246906859165675e+00,1.999774009799488272e+00,-1.972290706776253089e+01
1.443478928986571930e+00,2.307486155360926272e+00,-1.972244091105809360e+01
9.409531786493878780e-01,2.455540897561212077e+00,-1.972189301690513474e+01
4.395741933352693143e-01,2.560075387288956783e+00,-1.972226670750306710e+01
-7.544104390724007403e-02,2.629330831714632222e+00,-1.972237588319148571e+01
-6.470455394408820560e-01,2.603604885987058637e+00,-1.972214290837586859e+01
-1.148048668262335870e+00,2.471092091460276752e+00,-1.972151046817148412e+01
-1.619604190324713144e+00,2.344064437524158606e+00,-1.972193424390731664e+01
-2.123538941132655289e+00,2.143261489611692383e+00,-1.972205042330269720e+01
-2.581846164428018398e+00,1.861769691522868531e+00,-1.972217062198611970e+01
-3.029609568355625893e+00,1.549777538398696031e+00,-1.972155454802393493e+01
-3.334742461072809139e+00,1.073272562284468101e+00,-1.972182307949047342e+01
-3.579841311906594825e+00,5.496271477612556522e-01,-1.972216143920441667e+01
-3.698800571794554681e+00,1.325192039300726599e-02,-1.972163961555339284e+01
-3.691551897120420644e+00,-5.335802565430792788e-01,-1.972203011002520867e+01
-3.558522900605347150e+00,-1.042037753619909246e+00,-1.972163082252099997e+01
-3.431914862948782563e+00,-1.556531670202578432e+00,-1.972128701110527516e+01
-3.273590334078770869e+00,-2.058142370168746460e+00,-1.972186767470273594e+01
-2.982819326787283121e+00,-2.523270955661868875e+00,-1.972241292983571981e+01
-2.627307644733972047e+00,-2.896824076979275020e+00,-1.972204783246542803e+01
-2.227278801487020843e+00,-3.167049115929351011e+00,-1.972172549802316510e+01
-1.869557749649527034e+00,-3.465682087324362559e+00,-1.972129890474484171e+01
-1.472950781358802974e+00,-3.687238976766922249e+00,-1.972233104906973011e+01
-9.887963977683733585e-01,-3.829871591957125787e+00,-1.972230426808053849e+01
-4.838999617288156641e-01,-3.948926283039923657e+00,-1.972209092957927012e+01
9.844847890321234418e-02,-4.014822757917828611e+00,-1.972253746211707082e+01
6.341702066741486954e-01,-3.958730352811639985e+00,-1.972214265293046154e+01
1.137696065765620101e+00,-3.857707659704375125e+00,-1.972228995706424470e+01
1.681229482617770943e+00,-3.590637573261999282e+00,-1.972227556577486141e+01
2.101994478111880227e+00,-3.098603914488729405e+00,-1.972228622370149864e+01
2.475366269702093280e+00,-2.646319709614742166e+00,-1.972287569991121714e+01
2.744929712034462010e+00,-2.179354771840956495e+00,-1.972301510225373988e+01
2.947014941297943835e+00,-1.655200575633794635e+00,-1.972248522362813361e+01
3.052910355778173379e+00,-1.090761788536647847e+00,-1.972212918254128411e+01
2.960591320837036911e+00,-5.698895309887217486e-01,-1.972246790123613991e+01
2.866221236868942146e+00,-9.239715459135111608e-02,-1.972301759873647242e+01
2.813116290212294590e+00,3.361394357498086460e-01,-1.972289506619605248e+01
2.762089001618837969e+00,8.142731288607674145e-01,-1.972223346001417710e+01
2.520583825197094896e+00,1.249997672635766000e+00,-1.972184278857289286e+01
-3.332790932040718967e-01,-8.363058765528308403e-01,-2.180358666286720393e+01
3.124943919393103009e+00,5.063748365289271192e+00,1.982621376469213814e+01
2.656612284213577091e+00,5.406377263252068133e+00,1.982621371737453941e+01
2.162068888414995005e+00,5.726046949627386695e+00,1.982621369287196345e+01
1.573672350518768637e+00,6.013010298875292925e+00,1.982621364676917608e+01
9.196528669525544375e-01,6.240269079750758507e+00,1.982621357277766450e+01
1.334561653798428393e-01,6.408794398920228730e+00,1.982621359836160124e+01
-7.771830316091046242e-01,6.459762000364662526e+00,1.982621361746335609e+01
-1.729138990032264900e+00,6.329944329949831250e+00,1.982621363433231210e+01
-2.644339151319297976e+00,5.987994287926327708e+00,1.982621363024011885e+01
-3.497035764925571666e+00,5.475164150082820314e+00,1.982621361564394036e+01
-4.292202466364902769e+00,4.861036691897365536e+00,1.982621355964136356e+01
-5.008726397248938866e+00,4.155334024227309797e+00,1.982621358788685484e+01
-5.689128827368740815e+00,3.344022436224388883e+00,1.982621354900258126e+01
-6.281024171813045953e+00,2.442693426242003696e+00,1.982621358975794834e+01
-6.771775203971565738e+00,1.425366985765761152e+00,1.982621358609065254e+01
-7.069138487260607562e+00,3.072745120298980837e-01,1.982621358517909016e+01
-7.150504698828701322e+00,-8.492311956711537935e-01,1.982621359231593061e+01
-7.003950291723984201e+00,-2.012951094289111342e+00,1.982621353496111283e+01
-6.631951499260070548e+00,-3.134386566226060378e+00,1.982621351575153312e+01
-6.058210515145446173e+00,-4.180982906940353239e+00,1.982621351621132888e+01
-5.311236471731842101e+00,-5.151481902055031981e+00,1.982621355980528222e+01
-4.396890842453447412e+00,-6.025048275834706146e+00,1.982621356619253206e+01
-3.347964887731123440e+00,-6.781483645478459721e+00,1.982621359160066277e+01
-2.144118589844574707e+00,-7.401652099446438982e+00,1.982621359169637287e+01
-7.932859478870352143e-01,-7.820105728024220326e+00,1.982621357910209881e+01
7.082796045449590849e-01,-7.940062783991320927e+00,1.982621359876347000e+01
2.240897509905076745e+00,-7.679393961836778359e+00,1.982621362159029488e+01
3.687940732467007710e+00,-7.093071080006956741e+00,1.982621360569846303e+01
4.937474621782652839e+00,-6.201086984938401159e+00,1.982621355080777903e+01
5.919245062603746277e+00,-5.073531434993497236e+00,1.982621355027528054e+01
6.608238946133623060e+00,-3.744307866164245713e+00,1.982621357104561710e+01
6.966581577119321800e+00,-2.326080622786391050e+00,1.982621356200008833e+01
6.988838391638462433e+00,-9.134518028977106630e-01,1.982621351378347185e+01
6.735558090145828736e+00,3.704466443355720617e-01,1.982621354544286874e+01
6.290113832816887296e+00,1.458862104255380432e+00,1.982621355112644324e+01
5.706663504254662733e+00,2.357128183620058604e+00,1.982621355796103302e+01
5.122753042011340519e+00,3.084502768571676157e+00,1.982621359888559454e+01
4.591420709655513299e+00,3.706008829836708429e+00,1.982621356138804458e+01
4.085298354993969205e+00,4.230628801409489270e+00,1.982621369474023965e+01
4.455289770339145861e+00,6.089761838139577499e+00,1.796537113205386049e+01
3.508471637129694898e+00,6.686472175328733059e+00,1.796521484590429196e+01
2.646269637226418947e+00,7.118311627319189760e+00,1.796538838316190834e+01
1.751833011640767213e+00,7.399543539331787656e+00,1.796506323362882540e+01
7.383135695953604305e-01,7.516592941442880260e+00,1.796495485527327318e+01
-2.569170862794775134e-01,7.427125333310230282e+00,1.796426637130099735e+01
-1.181595680192621067e+00,7.173687473687436977e+00,1.796555964859273402e+01
-2.074193938791601521e+00,6.869875754479802588e+00,1.796594529231499138e+01
-2.888621488930383396e+00,6.480680367091148142e+00,1.796684550692069138e+01
-3.628124549666624787e+00,6.002679349130429109e+00,1.796541805025493233e+01
-4.297684367124348981e+00,5.430348421227287226e+00,1.796462739355539640e+01
-4.939038437974412332e+00,4.809320451377888439e+00,1.796545515432308093e+01
-5.482293898218911998e+00,3.963679197763343875e+00,1.796545847526033057e+01
-5.899559650957627355e+00,3.138729067711895304e+00,1.796598634652958637e+01
-6.211306069077489944e+00,2.321331863036562915e+00,1.796597258795504004e+01
-6.479657989516826255e+00,1.507580563799108209e+00,1.796566791330011981e+01
-6.637456560716414877e+00,6.220403205690869797e-01,1.796539884377330054e+01
-6.645978173063807226e+00,-4.027165802757037838e-01,1.796543976243559015e+01
-6.453130155425302661e+00,-1.435687138890481496e+00,1.796465532301801105e+01
-6.067428677635302137e+00,-2.430379596375282780e+00,1.796474490281605796e+01
-5.566271300102716424e+00,-3.374055331395970025e+00,1.796460760819453739e+01
-4.998577264715653001e+00,-4.249245161966969775e+00,1.796529128169063227e+01
-4.053858658474806198e+00,-5.033426717268330464e+00,1.796600727748992909e+01
-3.077576925814845765e+00,-5.690532494137955588e+00,1.796490848780405258e+01
-2.051886810345747492e+00,-6.258807925850494946e+00,1.796459922635337136e+01
-6.286808498011842161e-01,-6.626838185809465820e+00,1.796573153233169862e+01
7.337354902694932512e-01,-6.652518259835325409e+00,1.796560952506210640e+01
2.027966239599509723e+00,-6.411780965969729351e+00,1.796472417571417068e+01
3.291367583221984638e+00,-5.903249261459535546e+00,1.796459619523442086e+01
4.436571078333381379e+00,-5.224904586141258633e+00,1.796519662649623683e+01
5.432250962185531051e+00,-4.376656517623221276e+00,1.796558296552666434e+01
6.244008403474731850e+00,-3.376010399155032538e+00,1.796580355504308102e+01
6.709334170674740250e+00,-2.184133740571597482e+00,1.796537153089500194e+01
6.920552050884881012e+00,-9.143879634862396300e-01,1.796521880725435949e+01
6.958037691971969529e+00,3.270319627011406549e-01,1.796491818070605717e+01
6.763011324077897513e+00,1.482308972961869920e+00,1.796541605763794536e+01
6.478242203939334587e+00,2.471573612123076913e+00,1.796610304140516590e+01
6.089609750027845436e+00,3.472321740522227529e+00,1.796551451707632197e+01
5.767161747766224700e+00,4.431385918736125973e+00,1.796493443367276654e+01
5.220976669926732150e+00,5.310607518034449193e+00,1.796535755516704569e+01
4.759487622514670058e+00,6.375851791568241111e+00,1.610505473118984554e+01
3.786170297327490886e+00,6.998482229941522803e+00,1.610504254030663063e+01
2.839049505589096078e+00,7.418787410615786726e+00,1.610425068815329297e+01
1.889647212589854686e+00,7.656367160004706740e+00,1.610413434791511023e+01
8.503045048469591860e-01,7.730150572182997060e+00,1.610427862353559192e+01
-1.621374728977010848e-01,7.568514220555602634e+00,1.610431544809091875e+01
-1.079115041176524237e+00,7.274363472687515930e+00,1.610408719429817026e+01
-1.960627244186756268e+00,6.950156586240295198e+00,1.610445444152617611e+01
-2.742674074921117366e+00,6.503296944762387177e+00,1.610401436652996665e+01
-3.450998987599042778e+00,5.993304346197157351e+00,1.610427429016481682e+01
-4.117351471994899370e+00,5.492825722445909165e+00,1.610475229942791842e+01
-4.733648165021460130e+00,4.861661436181619500e+00,1.610439822097038842e+01
-5.259383247056808486e+00,4.002142949497999425e+00,1.610503890881834010e+01
-5.667513480714975849e+00,3.210273694587054027e+00,1.610470863998977364e+01
-5.981890781923261180e+00,2.441203414305561648e+00,1.610453089822276596e+01
-6.240543590034993038e+00,1.677013788101952230e+00,1.610416759320014179e+01
-6.409942892045105367e+00,8.362556560985064946e-01,1.610435037150700666e+01
-6.451771212492394270e+00,-1.899991245562731024e-01,1.610431515396257751e+01
-6.332249297753656414e+00,-1.236204688656172834e+00,1.610409268150307938e+01
-5.993846357392135005e+00,-2.229353192000850470e+00,1.610453854973686916e+01
-5.577563867246720264e+00,-3.235942019858248031e+00,1.610505190064297310e+01
-5.106565864439234659e+00,-4.188449852140530005e+00,1.610507551365610723e+01
-4.130436944709561686e+00,-5.025138367871905487e+00,1.610494131565105391e+01
-3.138126361059986102e+00,-5.715862083203834487e+00,1.610440768157884861e+01
-2.054942446037319570e+00,-6.248577792474026005e+00,1.610408925442073524e+01
-5.361282469669055306e-01,-6.493643298099454064e+00,1.610406218034299641e+01
8.520488248240533080e-01,-6.559227320916609649e+00,1.610444095347805060e+01
2.129442838617270795e+00,-6.317888826747603659e+00,1.610484622581856939e+01
3.404458016806348297e+00,-5.868967170740468475e+00,1.610540980738362649e+01
4.589908650506793641e+00,-5.227028227018038820e+00,1.610532309273773421e+01
5.613464053738489667e+00,-4.397283639266367672e+00,1.610472507391231289e+01
6.476020993555751559e+00,-3.412433612994092869e+00,1.610443821652448193e+01
6.975366963455433833e+00,-2.210217626582703154e+00,1.610429875672981481e+01
7.243296589312937961e+00,-9.193683620474812912e-01,1.610419943319898195e+01
7.307805882864302660e+00,3.641711048462371592e-01,1.610466199679661869e+01
7.176722068136213828e+00,1.550174185946476602e+00,1.610405311726236732e+01
6.862977947939259415e+00,2.617036227150973282e+00,1.610452377650448952e+01
6.591340611651834713e+00,3.651224319855843170e+00,1.610474518207908901e+01
6.129031489688088641e+00,4.643483126139248185e+00,1.610452650181971990e+01
5.536281755903827317e+00,5.568495278129876880e+00,1.610462965831268178e+01
4.378446683485888613e+00,6.931863671279615779e+00,1.424320016385732579e+01
3.309594806872230510e+00,7.449440468768101731e+00,1.424402542471633204e+01
2.261852237747102645e+00,7.746246227136125206e+00,1.424393503523294058e+01
1.274191204510843889e+00,7.843171332779482086e+00,1.424374641726595669e+01
2.700899185955212278e-01,7.793975533142620371e+00,1.424365164195447164e+01
-6.696793146296659005e-01,7.591237180242328186e+00,1.424353041083601923e+01
-1.496962589747952599e+00,7.260431581628124853e+00,1.424442266227285536e+01
-2.250187534376073106e+00,6.857604829414403191e+00,1.424397839782312936e+01
-2.942366482271778327e+00,6.419329663789415719e+00,1.424352984016672785e+01
-3.549360067005863595e+00,5.941326732170378655e+00,1.424328186812961761e+01
-4.112048566638915048e+00,5.450723685582145706e+00,1.424314694381695823e+01
-4.636651869946471827e+00,4.881532857880692688e+00,1.424300435773152529e+01
-5.090843589068554387e+00,4.162027419704533493e+00,1.424370269454670357e+01
-5.445144200990008621e+00,3.433483540108511534e+00,1.424371078390654155e+01
-5.742409788037985408e+00,2.772298019173263572e+00,1.424321820981978348e+01
-5.948867620599794570e+00,2.075827281462329754e+00,1.424329576478397286e+01
-6.128377505773044298e+00,1.293210221028887386e+00,1.424406660475547071e+01
-6.156429748551302872e+00,3.849142703041978919e-01,1.424389600701213787e+01
-6.081428630683124226e+00,-5.811985642759034398e-01,1.424334913316764961e+01
-5.851050356756474891e+00,-1.548121268153360042e+00,1.424296309298691199e+01
-5.514555582942095135e+00,-2.519289792432974906e+00,1.424292673262504394e+01
-5.053970477267299088e+00,-3.472891606318312618e+00,1.424275675713986011e+01
-4.257324649704325559e+00,-4.428439354883400902e+00,1.424236506038186789e+01
-3.325578294664898404e+00,-5.235805186555956503e+00,1.424365958963145395e+01
-2.252599329316080201e+00,-5.880773921364480294e+00,1.424426174817095969e+01
-8.237081665361678517e-01,-6.244746099655355209e+00,1.424385369923033728e+01
5.495613926422660001e-01,-6.379464051865879171e+00,1.424346668362126600e+01
1.915480082865005818e+00,-6.263379874641423761e+00,1.424301613277973289e+01
3.274701914547675674e+00,-5.886431674310425244e+00,1.424392176046578840e+01
4.551572091107268569e+00,-5.279582656310559230e+00,1.424473971292256813e+01
5.709892818699237260e+00,-4.465067138246470613e+00,1.424411100611613001e+01
6.633135213344099057e+00,-3.415544701501915803e+00,1.424387414614635183e+01
7.274269845182797845e+00,-2.146469133719726585e+00,1.424390150446222059e+01
7.610812954517631290e+00,-7.661695276696816048e-01,1.424340826590665898e+01
7.669384307860771521e+00,6.229139748376468777e-01,1.424330542120032916e+01
7.496332518556335422e+00,1.953721530566163711e+00,1.424274810905222033e+01
7.137303194761347669e+00,3.150970520735159930e+00,1.424328575833420452e+01
6.646902069470686847e+00,4.265549235441397968e+00,1.424377191942707377e+01
6.007358143174934106e+00,5.266926909358796038e+00,1.424338844519219371e+01
5.266811748294785822e+00,6.175613718397478635e+00,1.424314797862196258e+01
4.317623053358734531e+00,7.221148367376522437e+00,1.238436027213004387e+01
3.230663111615050820e+00,7.688947603875510239e+00,1.238298616330358115e+01
2.138265092586246752e+00,7.940640710000417712e+00,1.238227404013502841e+01
1.091324636827758265e+00,7.958407344877399758e+00,1.238257191161225279e+01
1.000677921674180126e-01,7.884654631455301654e+00,1.238214323723768651e+01
-7.752010827928749181e-01,7.646416744300703172e+00,1.238262627067540755e+01
-1.544377112622532522e+00,7.295510495403192408e+00,1.238300572726213034e+01
-2.259810146865167457e+00,6.941542412637790704e+00,1.238285558080631787e+01
-2.901681596454216194e+00,6.494219223219410253e+00,1.238291511181728310e+01
-3.479323095641667418e+00,6.025514857374085764e+00,1.238339032394712547e+01
-3.983639304291853200e+00,5.519953833089159545e+00,1.238309302099592379e+01
-4.491311984335506047e+00,4.950036064789242296e+00,1.238243062267620509e+01
-4.916198780677111912e+00,4.344862598157601674e+00,1.238265152211146614e+01
-5.264667000074043202e+00,3.705581151379159444e+00,1.238252671894136370e+01
-5.611582110589319328e+00,3.040562745501108388e+00,1.238255818639779093e+01
-5.853658209889169406e+00,2.314694566621176453e+00,1.238336087534956498e+01
-6.005803272264395254e+00,1.517153846257359273e+00,1.238242695445100239e+01
-6.081828570641794940e+00,6.342887844731337488e-01,1.238271519026584322e+01
-6.067022551186759038e+00,-3.265659377895806514e-01,1.238319026304738735e+01
-5.915163830409081669e+00,-1.328173415491517240e+00,1.238224489520528238e+01
-5.593984563365995477e+00,-2.357440690551581230e+00,1.238244585209469406e+01
-5.083336565139813246e+00,-3.421098616476894172e+00,1.238230022180396439e+01
-4.298700667117800300e+00,-4.376028724938247016e+00,1.238273785569813867e+01
-3.286959530799902218e+00,-5.226430184935731305e+00,1.238272820680939823e+01
-2.132900645717541455e+00,-5.890054075986708604e+00,1.238244633330053190e+01
-8.169492228636933140e-01,-6.306827380206900813e+00,1.238277896106960441e+01
5.824766632738130889e-01,-6.465315622066581724e+00,1.238299328242715092e+01
2.021843950108455079e+00,-6.352676812501854897e+00,1.238250107675987977e+01
3.434054964740307359e+00,-6.000062171236866249e+00,1.238190515297585570e+01
4.754557625001409882e+00,-5.346069907954258404e+00,1.238238544369942851e+01
5.932705049398715680e+00,-4.457475624193499186e+00,1.238337094332874244e+01
6.862321356861337485e+00,-3.321394904195700715e+00,1.238279015421315066e+01
7.525820022989187841e+00,-1.999094844893985590e+00,1.238257161582669497e+01
7.877445824543340969e+00,-5.844093344580161276e-01,1.238219201792184165e+01
7.911459750818263359e+00,8.643951858272924671e-01,1.238206767486735771e+01
7.689022672601701025e+00,2.264010107353106704e+00,1.238172047774939344e+01
7.349884467183284364e+00,3.505632795413169411e+00,1.238245947851930850e+01
6.794481351024309390e+00,4.649501362822764605e+00,1.238308760029832278e+01
6.073360235481706226e+00,5.653254231151409570e+00,1.238324229598810966e+01
5.256105179426060481e+00,6.523946179087344532e+00,1.238402745390415838e+01
4.247983831836113389e+00,7.431360731289434085e+00,1.052114172512274948e+01
3.175760920182779667e+00,7.870599125476639202e+00,1.052115201532829047e+01
2.025040980695685278e+00,8.055455211449082498e+00,1.052211163716606812e+01
9.326578216411154365e-01,8.058128284996435298e+00,1.052225654153026468e+01
-3.027889217500390195e-02,7.927484060083550332e+00,1.052262897447624468e+01
-8.863700834429282249e-01,7.678150715828104822e+00,1.052242978084060532e+01
-1.627339918033775756e+00,7.355630208977032680e+00,1.052216508888402657e+01
-2.280308286393756489e+00,6.986453614581087379e+00,1.052091068641040472e+01
-2.889185479373018950e+00,6.541518445184901331e+00,1.052047635799039327e+01
-3.444316658796644504e+00,6.068024227388377767e+00,1.052115590484325303e+01
-3.912990304979254930e+00,5.549819505659059793e+00,1.052130983937571074e+01
-4.388782685335047340e+00,4.985132133149322797e+00,1.052192276569840956e+01
-4.816039352238937532e+00,4.478788696237034905e+00,1.052231190223064239e+01
-5.181450852942414365e+00,3.916447105145682173e+00,1.052134914012318667e+01
-5.579649261740299515e+00,3.243386517707691041e+00,1.052085089116696892e+01
-5.880144996691606174e+00,2.501087857132898051e+00,1.052155073505115190e+01
-6.074695078468630882e+00,1.639291893825577384e+00,1.052258596730886353e+01
-6.203261614008665603e+00,7.451579920727726680e-01,1.052285500055997858e+01
-6.228720556753835069e+00,-2.169372611827795616e-01,1.052128277236912268e+01
-6.054383251322491333e+00,-1.250141703911924473e+00,1.052120480134904135e+01
-5.675508468469371515e+00,-2.306212654551861529e+00,1.052268488198697405e+01
-5.050718720040481280e+00,-3.376855417513535240e+00,1.052173010282329635e+01
-4.294801676683196234e+00,-4.358234813414642694e+00,1.052169110043635136e+01
-3.289554427799187497e+00,-5.224622868367369222e+00,1.052166355532349939e+01
-2.017360327970172840e+00,-5.882056751322416233e+00,1.052241721527771290e+01
-8.146022885108326061e-01,-6.350557754958684242e+00,1.052179087930610812e+01
6.303645652665048615e-01,-6.516646601872938760e+00,1.052203162193603347e+01
2.099591127382948841e+00,-6.411197925381686424e+00,1.052140785943464607e+01
3.564454331478489113e+00,-6.055582982443705298e+00,1.052160290009436849e+01
4.896818948016459672e+00,-5.363980835203514097e+00,1.052174838842709015e+01
6.062011159098678270e+00,-4.412061469036815176e+00,1.052135434444499396e+01
7.000299673539335465e+00,-3.229342043992738276e+00,1.052304577113038953e+01
7.690562138498539646e+00,-1.872254570210781566e+00,1.052194857924443383e+01
8.063128195101223028e+00,-4.417307228254065965e-01,1.052085738858119690e+01
8.112886608537543509e+00,1.023323690707140132e+00,1.052187653173881543e+01
7.903168782654395486e+00,2.456448234847752321e+00,1.052198801031635789e+01
7.520316678792505094e+00,3.765212484796709447e+00,1.052187287966240525e+01
6.924518418493175176e+00,4.938883879476762218e+00,1.052148415010270277e+01
6.137072236579341755e+00,5.942753816733514327e+00,1.052103859805229469e+01
5.240376433539980283e+00,6.777322563553299872e+00,1.052133538166854443e+01
4.188146664542860442e+00,7.599131231052432156e+00,8.661167123058946871e+00
3.124955626094412686e+00,7.986810394991055162e+00,8.660772633206393678e+00
1.956378294629999459e+00,8.159085374501493959e+00,8.661247782035600196e+00
8.584088006251614500e-01,8.139067285121527107e+00,8.661217482707984416e+00
-9.348777319339329761e-02,7.981463232093405580e+00,8.660343832455167146e+00
-9.416836854665980860e-01,7.718852313284655153e+00,8.659639754895421149e+00
-1.666034364611560292e+00,7.384775603116098708e+00,8.659200299038401383e+00
-2.293495465254051346e+00,6.995338165061686375e+00,8.659819648685193272e+00
-2.883651943495053160e+00,6.574753568491729538e+00,8.660475573861711851e+00
-3.432474731592512818e+00,6.104741177099510807e+00,8.661218777512955214e+00
