-8.078204485875559726e-01,1.175736764217567654e+01,5.317814603367807536e+00
-2.491869894141044650e+00,1.143422081621844555e+01,5.318207455317505605e+00
-4.244468493471307724e+00,1.090336209753962748e+01,5.317824261891418658e+00
-5.966401360960600364e+00,1.015790999977853559e+01,5.317624514410542957e+00
-7.531487935967907887e+00,9.178078278766603759e+00,5.317919473163378541e+00
-8.991016765297549895e+00,8.003676450302732448e+00,5.318312504512355154e+00
-1.021580082436495651e+01,6.562899452362199071e+00,5.319640454266430396e+00
-1.121658442099301567e+01,4.911545870066021280e+00,5.318560961683523658e+00
-1.195254691544177916e+01,3.133612529522029178e+00,5.316943098485337416e+00
-1.233356305412765508e+01,1.279494936009767603e+00,5.317388575809797402e+00
-1.236831054545558750e+01,-6.245057023581231936e-01,5.317763703451579893e+00
-1.210034320983978873e+01,-2.528274975535278912e+00,5.318210869849756328e+00
-1.151963541922101797e+01,-4.342775971617094832e+00,5.316620029993831764e+00
-1.068857067120149118e+01,-6.046503134431858939e+00,5.316051217859706135e+00
-9.691575324677582870e+00,-7.447378498956693349e+00,5.317398836070783119e+00
-8.462474758808493647e+00,-8.706946445478514818e+00,5.317887360088047188e+00
-7.069817210912020755e+00,-9.853333738916626672e+00,5.317009711195558097e+00
-5.553936470572060635e+00,-1.076482703905219118e+01,5.317153639964519840e+00
-3.921484854289957411e+00,-1.140257765427702275e+01,5.318152749859366146e+00
-2.223621904226156687e+00,-1.182918172082607811e+01,5.317841358815924124e+00
-4.725330622923435975e-01,-1.201982003475316141e+01,5.317240647293582256e+00
1.329985166040386302e+00,-1.197800272263124199e+01,5.317582185958696250e+00
3.080139307291784867e+00,-1.167783671159831549e+01,5.318100175109975680e+00
4.821209588600583018e+00,-1.111102856876848932e+01,5.317933762085870875e+00
6.585499586320879395e+00,-1.027566856213397628e+01,5.317476655197992841e+00
8.220661372127512578e+00,-9.164477593852261350e+00,5.318370510045095756e+00
9.629735527147960994e+00,-7.740954637424071194e+00,5.317464051830327776e+00
1.079648288550541402e+01,-6.186291269741547083e+00,5.316965664871683650e+00
1.165524597116667849e+01,-4.426713447957435932e+00,5.317217707128871318e+00
1.214676183261502729e+01,-2.485557093542706042e+00,5.317334404708133455e+00
1.233975661077412767e+01,-4.700131798444775466e-01,5.318568622781137734e+00
1.218954188379563064e+01,1.599823941536380190e+00,5.318138697958592509e+00
1.167519729946591589e+01,3.694966415040620955e+00,5.317594144851351956e+00
1.077027313979029977e+01,5.641867882190061856e+00,5.317477826136089547e+00
9.573156531666947799e+00,7.284315413939133066e+00,5.317334658946418990e+00
8.060776832876213049e+00,8.682165138425448347e+00,3.211292617939924821e+00
6.499431527429803346e+00,9.891184274465079085e+00,3.211665943022845138e+00
4.769490264505322763e+00,1.083964457822091809e+01,3.211378129795412928e+00
2.897183713252450055e+00,1.143689901607706361e+01,3.211429736386616440e+00
1.012559690599460716e+00,1.171981522203343218e+01,3.211042654859768142e+00
-8.365039832000129572e-01,1.175264769003866938e+01,3.211040585096180511e+00
-2.539942824394547216e+00,1.147370186863004449e+01,3.211181284552150572e+00
-4.323099799619274819e+00,1.095789658878000061e+01,3.212049254248526164e+00
-6.081438831438557457e+00,1.018814054574270678e+01,3.211514299672732164e+00
-7.670661611349921749e+00,9.164783367410578307e+00,3.210777020066813758e+00
-9.073395423096769719e+00,7.976180612019405203e+00,3.212606122328959035e+00
-1.025875287695504134e+01,6.536274608604835556e+00,3.212047480399621069e+00
-1.123303486820345043e+01,4.847396676937048454e+00,3.211907793372160036e+00
-1.189674182658836266e+01,3.046442857373351742e+00,3.211935396335352078e+00
-1.217214243521072881e+01,1.247478806708849142e+00,3.211467541656375158e+00
-1.212995671895567185e+01,-6.104567604258455127e-01,3.211976172445936140e+00
-1.176487507243328601e+01,-2.457798228403654583e+00,3.212830777840157914e+00
-1.108119048904009141e+01,-4.171606351126865064e+00,3.212832524093103714e+00
-1.024487786826572844e+01,-5.739710273291357190e+00,3.212168669975073776e+00
-9.253495224117578744e+00,-7.061868643757708952e+00,3.212008495270026298e+00
-8.040987969772508848e+00,-8.247127248679211320e+00,3.212190799389745610e+00
-6.745684895512981782e+00,-9.293769401007502040e+00,3.211544142240395416e+00
-5.307681391528378256e+00,-1.016546870868171304e+01,3.210938414975766708e+00
-3.748359476587455941e+00,-1.076959332091515975e+01,3.211781488226358672e+00
-2.109897452474474022e+00,-1.114919385821100128e+01,3.211472392073670523e+00
-4.648305464486136018e-01,-1.134891800389406136e+01,3.210513877742649402e+00
1.238454667411250210e+00,-1.141741514448793637e+01,3.211511659389837625e+00
2.942470863923192681e+00,-1.116965078942926581e+01,3.211748676900590294e+00
4.644335948838041794e+00,-1.064485102835820918e+01,3.211472272296371333e+00
6.339742761853599973e+00,-9.860327115876449611e+00,3.211408521375142211e+00
7.889682370856563765e+00,-8.796198472788310241e+00,3.211432140111093680e+00
9.262522445156958995e+00,-7.445125678805405656e+00,3.212198604934385138e+00
1.039620981393514754e+01,-5.947476896875397934e+00,3.212029651983951073e+00
1.125054016253154465e+01,-4.224455037761690512e+00,3.211654690123924016e+00
1.177612581245310608e+01,-2.367331579984697676e+00,3.211583574805259467e+00
1.201028597540934051e+01,-4.429263124789181161e-01,3.211270636737803219e+00
1.187330425968140801e+01,1.541115630561571193e+00,3.210996798589638601e+00
1.142885261385540474e+01,3.577675343032028721e+00,3.211518396491814809e+00
1.060707655640540814e+01,5.528718634920233299e+00,3.211581148238423999e+00
9.451535419866363696e+00,7.236083137256583697e+00,3.211201821303408366e+00
7.999368236281910960e+00,8.545172715629895777e+00,1.105962917177701899e+00
6.473785745889290233e+00,9.761991851506682139e+00,1.104858216878916499e+00
4.772252281693518228e+00,1.070669274085406819e+01,1.105082540136627989e+00
2.973952300900205348e+00,1.131771268591249147e+01,1.105166266195386715e+00
1.108331254688184497e+00,1.162975997499388470e+01,1.104604980913466150e+00
-7.267277783582676287e-01,1.167475852299105554e+01,1.104515539979450844e+00
-2.507955256937698607e+00,1.148003000453840095e+01,1.105519766099725798e+00
-4.324582756045129095e+00,1.097585377142731033e+01,1.105223589917794680e+00
-6.101268920955797981e+00,1.018249198772810971e+01,1.105518458817429384e+00
-7.685854452867659781e+00,9.136913490922017544e+00,1.105673801638444642e+00
-9.036409980578326895e+00,7.902392348506112718e+00,1.104836278574506059e+00
-1.018351104335355828e+01,6.468669488306746373e+00,1.106112462518306749e+00
-1.110214048705182677e+01,4.789172314947641951e+00,1.106011263827962443e+00
-1.169131962462823893e+01,2.998802873823170678e+00,1.105990718378785376e+00
-1.186906741577072033e+01,1.227297335332975248e+00,1.105426015678320217e+00
-1.178587714974507783e+01,-5.559089958614662486e-01,1.104510804497087717e+00
-1.135245696456414422e+01,-2.315993311027458645e+00,1.106108304291474997e+00
-1.058228656434627091e+01,-3.914265779273211621e+00,1.105793967933270450e+00
-9.703911794667311241e+00,-5.385844923896161873e+00,1.104960332186449401e+00
-8.714418510262412099e+00,-6.623345367065940792e+00,1.105499985209963620e+00
-7.581709119332116664e+00,-7.717589476079518285e+00,1.105366524921456595e+00
-6.324427732751373377e+00,-8.697223053194232278e+00,1.105068477514993930e+00
-4.973132274764473948e+00,-9.492738305315285174e+00,1.105234890492532207e+00
-3.517264075828418601e+00,-1.006294207840140587e+01,1.106015120029454124e+00
-1.993967034467019950e+00,-1.041214836509714914e+01,1.106092803432635829e+00
-4.519272877826937540e-01,-1.065754673408320663e+01,1.105224095923039718e+00
1.177556264859465518e+00,-1.078338630322781988e+01,1.105899832490638612e+00
2.792589064660987219e+00,-1.058114487085744138e+01,1.106018924825364014e+00
4.438900030439770106e+00,-1.013498014756646448e+01,1.105088621724911846e+00
6.048840833653591709e+00,-9.406277907355448775e+00,1.104863747892182779e+00
7.538151847371185710e+00,-8.410257609151319258e+00,1.105459537204858345e+00
8.850324674424443927e+00,-7.140382224460575245e+00,1.106153632937953990e+00
9.981102059315892561e+00,-5.670027905994186490e+00,1.106438729691555434e+00
1.085542299423754464e+01,-4.029860269188027644e+00,1.106147330229854120e+00
1.141881721022088314e+01,-2.259013328548113986e+00,1.105352661867327724e+00
1.165472688720619310e+01,-3.912211353184174012e-01,1.104486489206714550e+00
1.153564252374932941e+01,1.496206605668341627e+00,1.106023679162055462e+00
1.114621822568298803e+01,3.449073989018569097e+00,1.106196118473756762e+00
1.040275382276428573e+01,5.366687369398574603e+00,1.105987487487862131e+00
9.319471685236514702e+00,7.087101608000256903e+00,1.106304550356978167e+00
7.952717262297519518e+00,8.372673366939531903e+00,-9.991037519548908730e-01
6.495817538408724445e+00,9.603050257662761879e+00,-9.999127714061828431e-01
4.857421750317090670e+00,1.054758590943636598e+01,-9.997856214106055628e-01
3.085182016092773427e+00,1.118086801408269082e+01,-9.999348958817323441e-01
1.270282719421344853e+00,1.153171660164647250e+01,-1.000540227551244721e+00
-5.599780089619897927e-01,1.157901556179682956e+01,-1.000336293169040713e+00
-2.437964144343322648e+00,1.142715844769839606e+01,-9.992308913964195183e-01
-4.273567193286156751e+00,1.095028976324833181e+01,-9.996818121258583822e-01
-6.029113778706414628e+00,1.011175563658495058e+01,-1.000484386189283370e+00
-7.585828734031596632e+00,9.061733848765239685e+00,-9.998309973853337640e-01
-8.868581583497807230e+00,7.814213409409474842e+00,-9.997030409478581126e-01
-9.976185434377324412e+00,6.372075287502870999e+00,-1.001247002792310159e+00
-1.083091751184330143e+01,4.712610936553240926e+00,-1.000437605447978662e+00
-1.131524099431546304e+01,2.951572844123691475e+00,-9.993662940414875795e-01
-1.143149133415575491e+01,1.229025464210064422e+00,-9.994906126286827730e-01
-1.129482813099825833e+01,-4.887271024017713628e-01,-9.998764093126900621e-01
-1.084723627477115571e+01,-2.136241079710166968e+00,-1.000424793991574690e+00
-1.004251371750853394e+01,-3.640540195489716080e+00,-1.001168369990499185e+00
-9.114258614613158116e+00,-4.990643027054752601e+00,-1.000259182308210981e+00
-8.124691717104663979e+00,-6.166136066248406600e+00,-9.994897469662235023e-01
-7.053768888726134278e+00,-7.205541020236934102e+00,-1.001288887172943509e+00
-5.860467092880491613e+00,-8.110157292599096124e+00,-1.000526950670334703e+00
-4.578099903426597450e+00,-8.799244735994145472e+00,-9.993365075314379897e-01
-3.221543289992716108e+00,-9.319704524447537608e+00,-9.996321896282400754e-01
-1.820829113285858059e+00,-9.649112155879285169e+00,-1.000573368209900504e+00
-3.522833459726779637e-01,-9.929845392188775932e+00,-1.001224484015246219e+00
1.099163025393471660e+00,-1.005968572857562471e+01,-1.001443125154231284e+00
2.637084255653488807e+00,-9.922181310688438671e+00,-1.001055659275611465e+00
4.210682023126773643e+00,-9.560168595496742583e+00,-9.991708299056079046e-01
5.730167923989270662e+00,-8.908114003382566537e+00,-9.981930133597919363e-01
7.139086769899815721e+00,-7.966199899748290569e+00,-1.000249564350686793e+00
8.431255392694087192e+00,-6.802160060774625983e+00,-1.001244626734164367e+00
9.610112922814225911e+00,-5.406673931026608315e+00,-1.000919660032065339e+00
1.050998764477391134e+01,-3.839958278328981844e+00,-1.000586743267571910e+00
1.103184197909196840e+01,-2.113902082251387426e+00,-1.000061666829283658e+00
1.127089155072304294e+01,-3.199742851337732397e-01,-9.995323598114842500e-01
1.119615635461926395e+01,1.481347579961870720e+00,-9.997373362650516793e-01
1.085790450294256004e+01,3.356059730988047107e+00,-1.000654344926506178e+00
1.017419481493655020e+01,5.203120323861700314e+00,-1.000551428402913112e+00
9.192959159734993335e+00,6.889013065502148869e+00,-9.994340306983612310e-01
7.868321616278854513e+00,8.195808236201408192e+00,-3.105959447823768649e+00
6.482714058860946871e+00,9.422587606604214017e+00,-3.107002879671473483e+00
4.888111511128609088e+00,1.037183545480499447e+01,-3.105715487165134903e+00
3.186803865185377393e+00,1.104008240998025414e+01,-3.105207645071501599e+00
1.406484652989079320e+00,1.141792053914032934e+01,-3.106129126225764203e+00
-4.194970139884431903e-01,1.145398842642316950e+01,-3.106859036984156219e+00
-2.311301047411856935e+00,1.130091984543742534e+01,-3.107011684880250257e+00
-4.135017216517567817e+00,1.081499446043221724e+01,-3.105849633630725304e+00
-5.834235929472355586e+00,1.000949118556702189e+01,-3.105813135951342119e+00
-7.361572188090290680e+00,8.940702023876895055e+00,-3.106941686657284318e+00
-8.601731454556583500e+00,7.688487508786456814e+00,-3.106175649599801858e+00
-9.649811618585982131e+00,6.261986024368734860e+00,-3.106186760137252367e+00
-1.042254734597636379e+01,4.626346696856728613e+00,-3.105953325778755048e+00
-1.081944425270747701e+01,2.910744417252755234e+00,-3.106567985878510463e+00
-1.084874707149880813e+01,1.247573562705547534e+00,-3.107543579832711789e+00
-1.066215543972193736e+01,-3.786977332497010185e-01,-3.107191138626637095e+00
-1.020434875092568916e+01,-1.897553354983899432e+00,-3.105828884040775506e+00
-9.470770242091512969e+00,-3.331390477584920795e+00,-3.105125972860249384e+00
-8.496658660868774859e+00,-4.579384128351989602e+00,-3.106145228074900899e+00
-7.512430962168944681e+00,-5.680502113776668693e+00,-3.106816663933834377e+00
-6.506226509767417454e+00,-6.678441686331131777e+00,-3.106107187829478811e+00
-5.357746017631356494e+00,-7.506229151722436654e+00,-3.106177346978924891e+00
-4.118319587697978790e+00,-8.104443553164973224e+00,-3.106608960868391112e+00
-2.862447580936620994e+00,-8.552105259616475053e+00,-3.106436230895305517e+00
-1.564497246772188266e+00,-8.872614709770791919e+00,-3.106872642118213346e+00
-2.675600616681591548e-01,-9.169606080503637457e+00,-3.107705483411021596e+00
1.079146765089536331e+00,-9.260055485472323156e+00,-3.106295381630931995e+00
2.488619055250224310e+00,-9.192224860193947578e+00,-3.106733676057891635e+00
3.958456053621158599e+00,-8.902229271230545748e+00,-3.107067363318827269e+00
5.385447123559679028e+00,-8.293105762362067424e+00,-3.106486810014194688e+00
6.740405666805801665e+00,-7.474295270059444718e+00,-3.106758676356769833e+00
8.079578338081596200e+00,-6.477481716686303237e+00,-3.106505036007589649e+00
9.235793479197587530e+00,-5.144481651180471182e+00,-3.106346715835256678e+00
1.004925269392265186e+01,-3.601936373601218655e+00,-3.106349843273814137e+00
1.060601639364304916e+01,-1.973284961491073908e+00,-3.106165234620429150e+00
1.090171917658851442e+01,-2.268299416549333647e-01,-3.105445143918498463e+00
1.086493547038019081e+01,1.517035058255940205e+00,-3.107204407708148430e+00
1.051758523261339029e+01,3.301152974909725923e+00,-3.107223619770314915e+00
9.914687300070200493e+00,5.058716543950785294e+00,-3.105731811137087739e+00
9.018070744950160034e+00,6.716085679545031439e+00,-3.105149200937747267e+00
7.653967314583598913e+00,7.943337517973629858e+00,-5.212197859859553084e+00
6.331042401970311317e+00,9.162518865180993899e+00,-5.211963849661386483e+00
4.827588179970133453e+00,1.009800107513776091e+01,-5.211856136919197802e+00
3.213617635326519562e+00,1.079417458223893789e+01,-5.211892224358918746e+00
1.517829598741529118e+00,1.121424924552172975e+01,-5.211934408582528988e+00
-2.621399847323895305e-01,1.123588105310844654e+01,-5.211850646060438130e+00
-2.146645333395357902e+00,1.110696961180516773e+01,-5.211727253550884065e+00
-3.905659299264407025e+00,1.062918004391381110e+01,-5.212365199548827377e+00
-5.546463178298822960e+00,9.814579317092395172e+00,-5.212766293606838630e+00
-7.003980752036984114e+00,8.770934021999224228e+00,-5.211862165447604056e+00
-8.234198293617961184e+00,7.530795658951915605e+00,-5.211680079485431882e+00
-9.222005991452249418e+00,6.115725974617109983e+00,-5.212270215367137638e+00
-9.919622276168979624e+00,4.534869157772845050e+00,-5.212327716817227063e+00
-1.023357483907062893e+01,2.886951600771832993e+00,-5.212592106117170943e+00
-1.022789985212113173e+01,1.275433993547524514e+00,-5.213195251574333611e+00
-9.881631610486214967e+00,-2.467706254346120343e-01,-5.212535349063419865e+00
-9.419690422276621788e+00,-1.672758739679076179e+00,-5.212567237458123337e+00
-8.792404114813527016e+00,-3.003138649493714674e+00,-5.212723133831253186e+00
-7.860475687516319532e+00,-4.149214243037131489e+00,-5.212178177608957519e+00
-6.901174152430804121e+00,-5.182320511052819434e+00,-5.211957642001441293e+00
-5.942378234592462505e+00,-6.125446622158573717e+00,-5.212064785498292885e+00
-4.855345546809287427e+00,-6.869836345768806751e+00,-5.212825145068501698e+00
-3.668442196503338248e+00,-7.390892127931052435e+00,-5.212639080458078666e+00
-2.505878074526398436e+00,-7.795429843119327629e+00,-5.212436120213035373e+00
-1.328961625914913514e+00,-8.106042548085298449e+00,-5.212347536244923418e+00
-1.450579788670115500e-01,-8.383711380337857122e+00,-5.212646159969874127e+00
1.058109463425482177e+00,-8.441863489121603337e+00,-5.212232033372136364e+00
2.344410130351227473e+00,-8.401924216850586546e+00,-5.211518204029420787e+00
3.681674261151094196e+00,-8.145756333659210924e+00,-5.212509544270920614e+00
5.070006294590890583e+00,-7.717740130202888515e+00,-5.213018135330032443e+00
6.371697888617062766e+00,-7.003027694187403895e+00,-5.212201248949374310e+00
7.641764426043161862e+00,-6.067410627200841233e+00,-5.212570619355360257e+00
8.709967597955873941e+00,-4.799278495723497961e+00,-5.212961890992022340e+00
9.601435425596717366e+00,-3.388962924431597301e+00,-5.212659869865462703e+00
1.020284136327136615e+01,-1.816542181924540644e+00,-5.212512217976251527e+00
1.047866985291063102e+01,-1.307510806482869159e-01,-5.211947031711917866e+00
1.042927494196110771e+01,1.544578367717653888e+00,-5.211883720823870192e+00
1.012387836010229947e+01,3.234758645521360165e+00,-5.212204915968023933e+00
9.565336798730877277e+00,4.910428223094406519e+00,-5.212488611597181354e+00
8.736671953249171452e+00,6.501693447054829988e+00,-5.212461965229305605e+00
7.256888713112231493e+00,7.483641716025312363e+00,-7.318889221101556153e+00
6.062104499497042553e+00,8.642944002741362652e+00,-7.318204745511680542e+00
4.674071453187823799e+00,9.532882674922651844e+00,-7.317473561887482880e+00
3.171321484004301805e+00,1.021796007859239097e+01,-7.316951032302641877e+00
1.587161259777682298e+00,1.066003428637494466e+01,-7.317927746349706553e+00
-1.018419093057687241e-01,1.070360266418324713e+01,-7.318134607163566230e+00
-1.887153332881387424e+00,1.057683512778432444e+01,-7.317975135454213742e+00
-3.542487855433007926e+00,1.014487199675939877e+01,-7.318889163711193468e+00
-5.076158256567437022e+00,9.391212181138531179e+00,-7.318837846511147660e+00
-6.484016102063737463e+00,8.420383925110630940e+00,-7.318531650575460290e+00
-7.708278391327359813e+00,7.278036873353419978e+00,-7.319126816128462387e+00
-8.670352985918473365e+00,5.915489789678751720e+00,-7.317913710857506082e+00
-9.209110585904678459e+00,4.355492616206850798e+00,-7.317493376067982780e+00
-9.489529701989061650e+00,2.807942280855045158e+00,-7.318540427358843026e+00
-9.501056703204389109e+00,1.305276207463943461e+00,-7.318757760756872344e+00
-9.012128436569129875e+00,-1.120506035479942319e-01,-7.317894440691842028e+00
-8.561320455535529561e+00,-1.418938574282331277e+00,-7.318560025562675264e+00
-7.981260646124372471e+00,-2.650331258146257696e+00,-7.318288701691162856e+00
-7.200064295588822105e+00,-3.720747891857678180e+00,-7.317695364885801190e+00
-6.301099534314822392e+00,-4.672587124132056680e+00,-7.318158661951120081e+00
-5.390141930623837396e+00,-5.534856911638493138e+00,-7.318345237817307947e+00
-4.373839248100603427e+00,-6.205396368521619799e+00,-7.318499255455845010e+00
-3.312158240195206105e+00,-6.666208837797073627e+00,-7.318561591021960133e+00
-2.236732993926546342e+00,-7.046613596246556810e+00,-7.318966267190883279e+00
-1.151953283587198618e+00,-7.347686736537664132e+00,-7.319236248182025228e+00
-6.351951761281879327e-02,-7.573920416319641191e+00,-7.318302162525842647e+00
1.011361063092745871e+00,-7.620912816732143824e+00,-7.317831737982577245e+00
2.151669652138525457e+00,-7.574569032657504586e+00,-7.318947681850583642e+00
3.370326290812089898e+00,-7.339150846385623872e+00,-7.318730019588572056e+00
4.649872972755396461e+00,-7.020856766318783748e+00,-7.317914834190964335e+00
5.850412456193629041e+00,-6.398526324105442420e+00,-7.318414149944428182e+00
7.104388101274174083e+00,-5.607145099185409265e+00,-7.318749514257362421e+00
8.136117724499730031e+00,-4.436664851696290768e+00,-7.318594137968480240e+00
9.004254801555294563e+00,-3.132764256070563302e+00,-7.318348846718208733e+00
9.590955235167104576e+00,-1.640881002441561654e+00,-7.318679397758739213e+00
9.828055464677385444e+00,-3.938017255241252346e-02,-7.319072124586365469e+00
9.794449295975608649e+00,1.528097118707912427e+00,-7.317921708044410778e+00
9.528192770024892511e+00,3.086299712451956445e+00,-7.318239588879840163e+00
8.996395341237390042e+00,4.664179621282437793e+00,-7.319540143706358748e+00
8.226200753542915578e+00,6.133782437848601887e+00,-7.319642683991818721e+00
6.701410078655762881e+00,6.776452532872907497e+00,-9.424977598137386892e+00
5.638447162053932260e+00,7.844078629011372428e+00,-9.424569903634010259e+00
4.387141624819369312e+00,8.654239523714450044e+00,-9.424798207721297061e+00
3.016641620255910095e+00,9.263551573357943880e+00,-9.424974384549008377e+00
1.585392166279281145e+00,9.683539588564897826e+00,-9.425294708995505033e+00
6.660322143700442288e-02,9.791923262399956585e+00,-9.424793170488941385e+00
-1.525002535385661773e+00,9.625329271505602691e+00,-9.424606804988737707e+00
-3.000432244080537547e+00,9.206351904050464441e+00,-9.424379346283348724e+00
-4.376526209766162800e+00,8.552424285869342668e+00,-9.423794865360084927e+00
-5.626103480200500329e+00,7.697443118659688110e+00,-9.424191841168532591e+00
-6.777251579247039359e+00,6.672012016535441070e+00,-9.425079006011035432e+00
-7.647991917960706765e+00,5.433263121836704457e+00,-9.425610663633344544e+00
-8.131567700765122808e+00,4.047029656742743953e+00,-9.424205476259853498e+00
-8.411404884667877724e+00,2.667208459253837649e+00,-9.423805992828260258e+00
-8.453402619065506940e+00,1.304696684261761774e+00,-9.424781564180138460e+00
-8.020382545323723633e+00,1.996757587139807999e-02,-9.424508811021432564e+00
-7.650952986768081665e+00,-1.177902002143112581e+00,-9.424919094864931068e+00
-7.144803108278495962e+00,-2.287485336113179279e+00,-9.425182547920268661e+00
-6.480971227702304382e+00,-3.268007130081469036e+00,-9.425044434902272172e+00
-5.700798764869098534e+00,-4.142327769079615862e+00,-9.425066788202526524e+00
-4.855440903423721366e+00,-4.932472323948360327e+00,-9.423625612057124457e+00
-3.931758800074649951e+00,-5.525446517370578903e+00,-9.424179193762270756e+00
-2.968567495280289847e+00,-5.952696027169273485e+00,-9.424260050940645783e+00
-2.018048238921489546e+00,-6.302910997739350485e+00,-9.424000041461248145e+00
-1.051533622465677720e+00,-6.574687603635217314e+00,-9.424271207600114053e+00
-6.296389634290694426e-02,-6.735443457160149805e+00,-9.423827397023663011e+00
9.075624055264588375e-01,-6.777483115723285323e+00,-9.424696318029635478e+00
1.926200756191727148e+00,-6.724303040732389825e+00,-9.424737432850600172e+00
3.014042409338681061e+00,-6.537141080225308265e+00,-9.423852525514448075e+00
4.141820514269928033e+00,-6.194427076111364450e+00,-9.424565644795622532e+00
5.220934847950137403e+00,-5.678351082338992661e+00,-9.425204260339839379e+00
6.301566612346955587e+00,-4.978912734887090963e+00,-9.424878125618604940e+00
7.322257800941125438e+00,-3.982335163683488943e+00,-9.424214795294634683e+00
8.097578834300593442e+00,-2.799004158161000788e+00,-9.424599493471877310e+00
8.655803813314220108e+00,-1.467057170184817627e+00,-9.424497748551097231e+00
8.879691657841425112e+00,-1.093453382148334985e-03,-9.423817619434302628e+00
8.880481477801527745e+00,1.426521354051173418e+00,-9.424244332359391407e+00
8.655834582790710385e+00,2.845214092893488367e+00,-9.424720338427061250e+00
8.209689822999681752e+00,4.226974727154260592e+00,-9.425161543976383172e+00
7.558577258632469764e+00,5.546825663442108478e+00,-9.425305075856625692e+00
5.981708485879100756e+00,5.921236686664024695e+00,-1.153115670193316333e+01
5.055501332186732810e+00,6.847865050914814233e+00,-1.153038665957613595e+01
3.967432440617564726e+00,7.566557969985335141e+00,-1.152991379586380738e+01
2.766921088102768156e+00,8.067682022524968133e+00,-1.153045469281083513e+01
1.520362413310112348e+00,8.392041118264586430e+00,-1.153061908402368907e+01
1.889763915692452001e-01,8.550805660316582291e+00,-1.153049755570773449e+01
-1.125329274845337402e+00,8.371875678307223012e+00,-1.153040140868260721e+01
-2.378334746582759784e+00,8.023506200897234208e+00,-1.152995872618700091e+01
-3.553524752041778090e+00,7.506500809654271578e+00,-1.152992961779153447e+01
-4.640033130758285829e+00,6.796525121749214193e+00,-1.152971065835962605e+01
-5.650815552349582660e+00,5.902559897047454207e+00,-1.152949920598165612e+01
-6.418965557172150227e+00,4.832717983610150370e+00,-1.153050241721529012e+01
-6.916468427108783956e+00,3.698465943637345710e+00,-1.153149771946622870e+01
-7.180802206391027731e+00,2.497654328413298153e+00,-1.153095850257252231e+01
-7.254115868933074474e+00,1.288214791417627625e+00,-1.153042863176250066e+01
-7.010044177014692401e+00,1.574310481168854636e-01,-1.153077437763828605e+01
-6.863856086007873003e+00,-9.732705089641621177e-01,-1.153065417537242965e+01
-6.380692655895581211e+00,-1.963418863635333800e+00,-1.153093994368958164e+01
-5.716490335221957153e+00,-2.791720357636473526e+00,-1.153082152963798634e+01
-5.057962799936039922e+00,-3.599982741054025048e+00,-1.152972287249838956e+01
-4.308866263839677302e+00,-4.302879297563853456e+00,-1.152958253129845012e+01
-3.500302940193782852e+00,-4.828296651918169147e+00,-1.152997265098438362e+01
-2.650488432590735410e+00,-5.233879475631813882e+00,-1.152986306226308777e+01
-1.798555027764563663e+00,-5.548406238849820760e+00,-1.153035680041591782e+01
-9.516445240998105959e-01,-5.784139350713354943e+00,-1.153134033698149175e+01
-8.373325760960825814e-02,-5.895547715843215464e+00,-1.153019388434563020e+01
7.806412388574693884e-01,-5.955193128720448037e+00,-1.152930403972806417e+01
1.698620093815005783e+00,-5.914576136646561011e+00,-1.153129479595391693e+01
2.649037630786587272e+00,-5.720308881217011532e+00,-1.153109922065113935e+01
3.694044276994030263e+00,-5.482042873197547905e+00,-1.153016680001536898e+01
4.675617245180072601e+00,-5.004808257751451883e+00,-1.153026360093625158e+01
5.476106596150886574e+00,-4.299216033198131726e+00,-1.153137440693663684e+01
6.344824066449146649e+00,-3.453962452345679335e+00,-1.153127907047080214e+01
7.128526799269092606e+00,-2.458267438173100228e+00,-1.153052270140964097e+01
7.577821995311724734e+00,-1.268125043984651645e+00,-1.153040566233351960e+01
7.772345117583566498e+00,1.453790322636752674e-02,-1.153105779047898594e+01
7.803392935470697012e+00,1.271503061337137419e+00,-1.153079337320229314e+01
7.615445891380058896e+00,2.514796910643078309e+00,-1.152996996812559516e+01
7.253253753133802384e+00,3.707662656939429979e+00,-1.152992968830401033e+01
6.711889351477909216e+00,4.854079016338729069e+00,-1.153081294358962516e+01
5.115668959796598081e+00,4.975016797419805847e+00,-1.363604390798325205e+01
4.346724143320439993e+00,5.748767791152480378e+00,-1.363679492937022886e+01
3.460641150999843152e+00,6.365111944368029739e+00,-1.363624592760129239e+01
2.454425039103972139e+00,6.753392458970472134e+00,-1.363601714040563095e+01
1.402044440615964671e+00,6.981478553854867819e+00,-1.363634870889990403e+01
3.007414623406357013e-01,7.108863691534445195e+00,-1.363611623704468201e+01
-7.505966778407121565e-01,6.993560519378724472e+00,-1.363627775741907300e+01
-1.735992754882506706e+00,6.739694413695295871e+00,-1.363632333062411028e+01
-2.706620509464316093e+00,6.388274540937074697e+00,-1.363671649198764158e+01
-3.650971937291509484e+00,5.870003349144807814e+00,-1.363723991006678915e+01
-4.550559815740201408e+00,5.132957910068203233e+00,-1.363602082531485316e+01
-5.216271519379197308e+00,4.243123214873076421e+00,-1.363579788990624486e+01
-5.675793873481199903e+00,3.329454910258939915e+00,-1.363523084549555087e+01
-5.914646971944125475e+00,2.328464813124737631e+00,-1.363584500022180990e+01
-6.070841716383316822e+00,1.286595486978242109e+00,-1.363735103591454312e+01
-6.056273324074556541e+00,2.876524688759520276e-01,-1.363727471816457104e+01
-5.974396645544653772e+00,-7.614873478596699830e-01,-1.363538432527498223e+01
-5.469611901448701019e+00,-1.596061666655665512e+00,-1.363576907230155122e+01
-4.894474468211782003e+00,-2.290103803544166983e+00,-1.363602377546729016e+01
-4.379134449145441366e+00,-3.042961688281021981e+00,-1.363580283714819785e+01
-3.725823869541711630e+00,-3.647881794100706010e+00,-1.363609473640602765e+01
-3.040473880206446378e+00,-4.116345289720152678e+00,-1.363554084276875678e+01
-2.310094258491760755e+00,-4.475746354193188559e+00,-1.363692390730279769e+01
-1.562983002603071103e+00,-4.750740270198078541e+00,-1.363789033222651348e+01
-8.381435522097513413e-01,-4.937915562454242568e+00,-1.363664841488155943e+01
-8.101145184619198969e-02,-5.032774006450820181e+00,-1.363578771172323911e+01
6.932036955719496074e-01,-5.116714593406427980e+00,-1.363577344106636069e+01
1.485068307293190948e+00,-5.087137685187865799e+00,-1.363616265207391187e+01
2.320300215571305280e+00,-4.919720760639305190e+00,-1.363649245825171974e+01
3.189788439893890271e+00,-4.684204907678106267e+00,-1.363561529451529530e+01
4.063577580126192856e+00,-4.273145317904530671e+00,-1.363531293968702940e+01
4.761869677890743446e+00,-3.684262787410057527e+00,-1.363631445945677889e+01
5.452822874877510273e+00,-2.927650398544609178e+00,-1.363700224779470460e+01
6.042456182884799354e+00,-2.060275143318427649e+00,-1.363770054369205731e+01
6.496132736405717978e+00,-1.063961307293376679e+00,-1.363707771530390467e+01
6.669348890642993410e+00,3.651546626271690021e-02,-1.363658331958439973e+01
6.670025055352989618e+00,1.109787131210258737e+00,-1.363622816437578855e+01
6.493338739959527928e+00,2.154964868602842643e+00,-1.363672770047442917e+01
6.178980190380912063e+00,3.149518829770213912e+00,-1.363663351822605030e+01
5.730684962748734179e+00,4.090659966197883080e+00,-1.363601181188967360e+01
4.197362697995751901e+00,3.994027802395159643e+00,-1.574284955041506961e+01
3.580138700284476894e+00,4.609795307716007429e+00,-1.574179065819022405e+01
2.891244596524836119e+00,5.122833526209154442e+00,-1.574218743406668430e+01
2.080700325920866511e+00,5.417734657177970981e+00,-1.574327569091320456e+01
1.244306792123534677e+00,5.579013112725669465e+00,-1.574259270349108419e+01
3.683139227128900961e-01,5.688265490535526325e+00,-1.574169065250840660e+01
-4.147634472769995417e-01,5.629260416766638464e+00,-1.574265352074835711e+01
-1.185788552558239228e+00,5.494517367054648105e+00,-1.574255727033278873e+01
-1.963452007132303834e+00,5.284298946267135477e+00,-1.574257881382010993e+01
-2.731474862659410530e+00,4.909100301782989284e+00,-1.574203440086593275e+01
-3.498655837519651257e+00,4.334087652496181775e+00,-1.574197424512386512e+01
-4.051911968636482619e+00,3.629216638742580603e+00,-1.574226991414898258e+01
-4.469933104993267570e+00,2.925231429679289175e+00,-1.574239109230617117e+01
-4.683972829495058221e+00,2.115728801024701511e+00,-1.574275851148056660e+01
-4.853942228012362747e+00,1.248437544781032305e+00,-1.574188728405608195e+01
-5.123186719961897673e+00,3.905046577398004204e-01,-1.574200703160109427e+01
-4.977348405974947099e+00,-5.311541496702992804e-01,-1.574213824283764929e+01
-4.485957255486607842e+00,-1.207508215138278995e+00,-1.574219878722021271e+01
-4.058559148764111058e+00,-1.804433951028415528e+00,-1.574223535653636930e+01
-3.670345949671700581e+00,-2.485104512195654092e+00,-1.574266155796411759e+01
-3.141111006341136047e+00,-3.003905219814286376e+00,-1.574282970008777305e+01
-2.561992773028634041e+00,-3.397682483812428877e+00,-1.574180768403762620e+01
-1.944924721716732918e+00,-3.716611322210649160e+00,-1.574172548073675237e+01
-1.306717881332150277e+00,-3.947893626719859661e+00,-1.574278839443095812e+01
-6.845772812604802304e-01,-4.084572639446684583e+00,-1.574200405242594414e+01
-3.325390546140660764e-02,-4.203234795984815086e+00,-1.574137220315945740e+01
6.117631918588528617e-01,-4.309706642601003779e+00,-1.574126804591007200e+01
1.289323838698477109e+00,-4.268843527245035574e+00,-1.574129712185042251e+01
1.982920933496978400e+00,-4.139413623978715151e+00,-1.574247928723022305e+01
2.728332000970836724e+00,-3.922732271798512471e+00,-1.574242813333731128e+01
3.407596604666169426e+00,-3.506635873299448036e+00,-1.574131836802561679e+01
3.949124622394945661e+00,-2.982945236033070824e+00,-1.574183698099734308e+01
4.605534731289142591e+00,-2.430562750726361188e+00,-1.574176435193857060e+01
5.167111340904003036e+00,-1.716749494018646738e+00,-1.574202620055688406e+01
5.420420922425864596e+00,-8.461492918681532416e-01,-1.574288186658187705e+01
5.497133051986703656e+00,5.075849810453070265e-02,-1.574257973016890588e+01
5.500726952420259330e+00,9.563318019118181024e-01,-1.574240043189059080e+01
5.348282760834601746e+00,1.802506323177787362e+00,-1.574195568998433181e+01
5.072353793281244805e+00,2.579006640871110090e+00,-1.574212628130063329e+01
4.689747565675038032e+00,3.309796710063301894e+00,-1.574287704111244679e+01
3.224475239449493991e+00,3.011913778520209028e+00,-1.784811870445760817e+01
2.771034241339684900e+00,3.463044862331788210e+00,-1.784818553289483489e+01
2.286534200007224182e+00,3.868752750670505058e+00,-1.784815430948820136e+01
1.683755664764169602e+00,4.087836269399824474e+00,-1.784848956909702267e+01
1.047247277357592266e+00,4.197305543009615114e+00,-1.784776440302118061e+01
3.861967814990705516e-01,4.301492377465711670e+00,-1.784848411702498794e+01
-1.642745301382561030e-01,4.329680529706213754e+00,-1.784931815484588924e+01
-7.052600510889248664e-01,4.268808870390108368e+00,-1.784916394195825617e+01
-1.265263929776397012e+00,4.107796344673523059e+00,-1.784844274637395500e+01
-1.842555686267709270e+00,3.881508288711407406e+00,-1.784868610669603228e+01
-2.485520206792457110e+00,3.468210061214362927e+00,-1.784893613200256013e+01
-2.946930688823012900e+00,2.960224627811246290e+00,-1.784914739510344361e+01
-3.289288921658916731e+00,2.464814609248151545e+00,-1.784825647041559193e+01
-3.479725270808407434e+00,1.852224748538768839e+00,-1.784835490016912729e+01
-3.941936394191582593e+00,1.169921318665397170e+00,-1.784882375162212398e+01
-3.978260312202837046e+00,4.571721205052056702e-01,-1.784830592208668776e+01
-3.851490402548110925e+00,-3.086281176955374961e-01,-1.784800222341128162e+01
-3.420565535370275967e+00,-8.249692811693571937e-01,-1.784820076345279460e+01
-3.154106697866142284e+00,-1.332096820597062026e+00,-1.784821307702141624e+01
-2.898501660154164661e+00,-1.908185374702241699e+00,-1.784777975514637660e+01
-2.485470484196903751e+00,-2.335474050555550463e+00,-1.784793482857061875e+01
-2.029025209373677807e+00,-2.637820976953841878e+00,-1.784820499528991888e+01
-1.511748156717213298e+00,-2.908828658524282407e+00,-1.784842427596120729e+01
-9.927600726109377938e-01,-3.091193929894903825e+00,-1.784852764194206287e+01
-5.033663621385340292e-01,-3.177617516577488477e+00,-1.784825465876659578e+01
2.481456684821248260e-03,-3.333398041157827230e+00,-1.784752042484416634e+01
5.433643051634682308e-01,-3.459528319330389401e+00,-1.784799237041955067e+01
1.073180200495457370e+00,-3.417065240836254958e+00,-1.784839664732682962e+01
1.656379440213957110e+00,-3.308175046733278446e+00,-1.784870675656941685e+01
2.261988887917751434e+00,-3.130921356919710519e+00,-1.784878486364733874e+01
2.785696707013119777e+00,-2.752668388020856227e+00,-1.784866290194824501e+01
3.170031428049971733e+00,-2.299468470091847294e+00,-1.784822724468719812e+01
3.622663175755515219e+00,-1.842792579841352918e+00,-1.784838851675528204e+01
4.138679077232536585e+00,-1.307401016212631939e+00,-1.784828691909147835e+01
4.382212082093519534e+00,-6.366317102216113577e-01,-1.784814782288782098e+01
4.422732875982696932e+00,8.799503670745320583e-02,-1.784785467537570369e+01
4.260697988750303367e+00,7.683746798039047254e-01,-1.784822783129944312e+01
4.130869636139760104e+00,1.420481763632670091e+00,-1.784929831970217151e+01
3.916376918456669465e+00,1.995746818172082104e+00,-1.784884266122829288e+01
3.613837013358777828e+00,2.522449265574135957e+00,-1.784818483485108587e+01
2.177650447860849603e+00,1.990777394597944561e+00,-1.995470502185715134e+01
1.885667447788368811e+00,2.271250664398746455e+00,-1.995406191691095543e+01
1.603839049098945813e+00,2.543475391539577579e+00,-1.995370521522657725e+01
1.218027189254413889e+00,2.687870951706158529e+00,-1.995392786173461275e+01
7.989233152344555888e-01,2.755802234268114770e+00,-1.995452805874719360e+01
3.646212038723762316e-01,2.867878718428753082e+00,-1.995464998978814108e+01
5.302847271585864330e-02,2.870427679391662323e+00,-1.995406891266530636e+01
-2.641530407524542712e-01,2.843599960861526554e+00,-1.995409007350307462e+01
-5.940516772242239174e-01,2.793152496751149627e+00,-1.995402482669177857e+01
-9.693700875772762737e-01,2.683111759481361602e+00,-1.995362243014247738e+01
-1.439086127976675566e+00,2.430126573246418786e+00,-1.995401829010869221e+01
-1.832764898646230378e+00,2.174789189895689479e+00,-1.995452816057467160e+01
-2.077997146753704172e+00,1.862068194312146430e+00,-1.995477531076161526e+01
-2.406627999682230623e+00,1.502968193498771088e+00,-1.995445623277600689e+01
-2.542550255260006775e+00,9.666604823671202107e-01,-1.995404543172559997e+01
-2.557116291920649154e+00,4.734254593269524025e-01,-1.995428174278425359e+01
-2.411206086201520549e+00,-5.147738882933208110e-02,-1.995453897604647153e+01
-2.239619511284299591e+00,-4.531436242669340531e-01,-1.995403388947494605e+01
-2.089950600158519300e+00,-8.049190527124150396e-01,-1.995473870537601258e+01
-1.941635797839950994e+00,-1.230704220714066821e+00,-1.995503498600580983e+01
-1.676823912963119279e+00,-1.546323919153975490e+00,-1.995401827859998534e+01
-1.339160130044940722e+00,-1.737473531606230193e+00,-1.995369033748886878e+01
-9.712212368569943521e-01,-1.931355099028070565e+00,-1.995395820116862140e+01
-5.965632127080005009e-01,-2.046858812766201297e+00,-1.995432545634740862e+01
-2.813142338131307540e-01,-2.097969972822316898e+00,-1.995465980558843100e+01
5.352437784640776131e-02,-2.190893199759857524e+00,-1.995448120534122793e+01
4.435553224894501212e-01,-2.379521434371981492e+00,-1.995417509524765265e+01
8.359213611693102619e-01,-2.363834983943297718e+00,-1.995397253584850006e+01
1.265333666189853101e+00,-2.298517361932844949e+00,-1.995452481901312325e+01
1.693177740784358676e+00,-2.141844173532371443e+00,-1.995421873453133443e+01
2.039714142747666603e+00,-1.828381334049457685e+00,-1.995437442006950235e+01
2.354141004848959717e+00,-1.542377819580415643e+00,-1.995455901063064630e+01
2.609146059831439324e+00,-1.198344525383373327e+00,-1.995469945399793588e+01
2.810968511655065782e+00,-7.849981318597014646e-01,-1.995437248156370202e+01
3.030616094270854433e+00,-3.450125223331265145e-01,-1.995405995268016142e+01
3.133373108303308729e+00,1.359708545677769942e-01,-1.995402618942079087e+01
3.051361988467088615e+00,6.174197597238068047e-01,-1.995460932556288469e+01
2.808620668144776733e+00,1.003181845696618169e+00,-1.995447716858211606e+01
2.649047794806458356e+00,1.366971285231221467e+00,-1.995453565408756802e+01
2.440579735469488476e+00,1.695211446834195446e+00,-1.995472068490110829e+01
4.505049779990902281e-02,4.607284795274579903e-02,-2.206030658137310141e+01
2.993140595662822534e+00,5.118470665031964018e+00,2.005973544400253061e+01
2.201345862992389879e+00,5.570343083719270005e+00,2.005973544940937714e+01
1.371250728256418139e+00,5.885944930159091371e+00,2.005973540904420105e+01
4.929244366748025685e-01,6.085854323842830205e+00,2.005973534828526184e+01
-4.062653581122263047e-01,6.145006130783928100e+00,2.005973528985282073e+01
-1.326678344621346151e+00,6.103565639945432331e+00,2.005973533381191132e+01
-2.234644625764130144e+00,5.912623061959165760e+00,2.005973538215454965e+01
-3.074728821503407428e+00,5.578741865386401599e+00,2.005973542334400150e+01
-3.834449937031231048e+00,5.110835648859708868e+00,2.005973542631631190e+01
-4.481852038579535069e+00,4.528531914079461984e+00,2.005973540962419222e+01
-4.979052641584520877e+00,3.857017953082861883e+00,2.005973534903887412e+01
-5.364997826550244930e+00,3.129682891576453407e+00,2.005973537651140148e+01
-5.637849632236828334e+00,2.360189589315303316e+00,2.005973535684077191e+01
-5.816494865537242376e+00,1.562657018177187940e+00,2.005973537296033271e+01
-5.897141018607934271e+00,7.190202490125383594e-01,2.005973540261868138e+01
-5.861247655109517396e+00,-1.436462195290252042e-01,2.005973545093562294e+01
-5.725521565029230153e+00,-1.028336945844715133e+00,2.005973541365317203e+01
-5.491159697530660466e+00,-1.919878835995747934e+00,2.005973535985054568e+01
-5.121675903960130505e+00,-2.778608967440035382e+00,2.005973534946711467e+01
-4.628852393943780896e+00,-3.555264420356467170e+00,2.005973530691090900e+01
-4.032174396989246290e+00,-4.276079716845582190e+00,2.005973529803309319e+01
-3.350934944433463958e+00,-4.941826157934515962e+00,2.005973528671838224e+01
-2.595819590296233770e+00,-5.548760340979144168e+00,2.005973529658560039e+01
-1.764420067099338851e+00,-6.073371487631579413e+00,2.005973531556008282e+01
-8.441214709617783640e-01,-6.475835941050829270e+00,2.005973529553519441e+01
1.240581500190657271e-01,-6.690356802266387959e+00,2.005973532069863197e+01
1.127435661207420114e+00,-6.693817038557246413e+00,2.005973534106000855e+01
2.199833676109201885e+00,-6.477840977584860660e+00,2.005973533291548350e+01
3.271151245799988505e+00,-6.032311118299326758e+00,2.005973530430720686e+01
4.237570982229158290e+00,-5.357208686873580206e+00,2.005973535087559867e+01
5.033980600635652891e+00,-4.458857956299661751e+00,2.005973540430727198e+01
5.595895987986321707e+00,-3.413056415862116832e+00,2.005973540331479299e+01
5.936879163921988223e+00,-2.284211393478996488e+00,2.005973539408987705e+01
6.058482607854104529e+00,-1.127263463884131900e+00,2.005973537221717962e+01
5.963650997647070184e+00,1.127230543512253158e-02,2.005973534559738169e+01
5.670973620076805943e+00,1.088351784168222203e+00,2.005973536316617256e+01
5.282807098487826813e+00,2.059172342770807962e+00,2.005973540015955336e+01
4.849598837544174756e+00,2.963738802035532860e+00,2.005973539383130699e+01
4.343645985457142977e+00,3.807492296471958859e+00,2.005973544704874456e+01
3.844216434598084042e+00,4.299920131065459117e+00,1.823211629430646141e+01
3.112968910533100431e+00,4.811449954241544980e+00,1.823133939832522543e+01
2.346575134298290788e+00,5.199138611039268554e+00,1.823142588388951424e+01
1.560900376438368209e+00,5.428035193262113367e+00,1.823109548639556365e+01
7.788304822617146961e-01,5.624721949540617771e+00,1.823108318093010638e+01
-7.751512768832768963e-02,5.696374750161409040e+00,1.823156220777255498e+01
-9.104266852967969337e-01,5.616175030452842165e+00,1.823160803628518778e+01
-1.659423863419118517e+00,5.412634279697709161e+00,1.823116358763486744e+01
-2.406954660395314249e+00,5.105112793265845994e+00,1.823168048814934039e+01
-3.098452837120842407e+00,4.706328615115459968e+00,1.823116341830630560e+01
-3.657512183402602979e+00,4.187809014524821905e+00,1.823014383724886400e+01
-4.189466987696810918e+00,3.675670978994339588e+00,1.823063791262343969e+01
-4.735162979525884275e+00,3.089634587723181891e+00,1.823126742269166911e+01
-5.122404261697276695e+00,2.429452973271746252e+00,1.823042264419868630e+01
-5.469349470323422224e+00,1.667353169508507316e+00,1.823096784501147738e+01
-5.748480771583743376e+00,8.100814077355237286e-01,1.823139893124996647e+01
-5.825674711746099632e+00,-9.653450291666031136e-02,1.823057818274016739e+01
-5.755263274624901726e+00,-1.047827647174959242e+00,1.823053194553438061e+01
-5.629276708018476683e+00,-2.031977170573396663e+00,1.823074693535540547e+01
-5.283403131140995690e+00,-2.935996566319534651e+00,1.823081572447295429e+01
-4.843686398165913509e+00,-3.775942744458901768e+00,1.823105373915912608e+01
-4.223476849109498055e+00,-4.452591142435275984e+00,1.823049707886677595e+01
-3.485701941005511895e+00,-4.972096322682474145e+00,1.823079139085810496e+01
-2.777011078461004701e+00,-5.586863999428608452e+00,1.823004048385783804e+01
-1.963160361556097300e+00,-6.094047389736505060e+00,1.823027781589676621e+01
-1.008481680724992557e+00,-6.467648939683591003e+00,1.823127525711950270e+01
1.548019395940704035e-01,-6.892068225622851152e+00,1.823201636318346530e+01
1.284485827067481267e+00,-6.937207996238304197e+00,1.823123573226877880e+01
2.429484577171331594e+00,-6.654433094482328670e+00,1.823032678924444738e+01
3.487654268318437722e+00,-6.104715206735360944e+00,1.823057606845563683e+01
4.444542918627271355e+00,-5.389177833689546837e+00,1.823103148429286335e+01
5.256196759949321340e+00,-4.528474164304050475e+00,1.823099453464435982e+01
5.897288100149112644e+00,-3.472551858054983676e+00,1.823100100442390215e+01
6.176953799160775027e+00,-2.320810495866066248e+00,1.823025787489682159e+01
6.266502157983443233e+00,-1.118730056034145548e+00,1.822958647885759120e+01
6.247716360000755920e+00,3.490472150746765090e-02,1.823026520107356774e+01
5.968377827427118199e+00,1.125122556046126876e+00,1.823143729923694067e+01
5.609194486880369368e+00,2.135794800582875741e+00,1.823191340870562982e+01
5.163052871005166189e+00,3.000338727135376526e+00,1.823113715485741437e+01
4.544034862506558525e+00,3.714403408482337632e+00,1.823143632960975680e+01
3.968323410771946058e+00,4.115872733318481913e+00,1.640270674143560115e+01
3.247305105631999034e+00,4.570247587912075637e+00,1.640231509228139117e+01
2.515000187135220777e+00,4.926950770861151518e+00,1.640164653512423598e+01
1.765133654658165518e+00,5.090301046424301035e+00,1.640188918458375156e+01
1.058399031484386743e+00,5.294205804337623000e+00,1.640158406038615624e+01
3.247605007202477023e-01,5.447390842772497521e+00,1.640193677908300529e+01
-4.834499552853444015e-01,5.462906775978761509e+00,1.640261408037150304e+01
-1.207210873581897159e+00,5.332297537082892447e+00,1.640218851204515005e+01
-1.894117971271527479e+00,5.038925076614470200e+00,1.640136111337175961e+01
-2.621303565267802504e+00,4.668823231474288349e+00,1.640266469393428039e+01
-3.185609380054029938e+00,4.237764729065999880e+00,1.640288557460784347e+01
-3.703885198863415162e+00,3.745582885145972707e+00,1.640210313365829009e+01
-4.223708712070514792e+00,3.222538845180819678e+00,1.640262904830888502e+01
-4.698879921361401202e+00,2.582835640829086454e+00,1.640160389303869692e+01
-5.227324562406368891e+00,1.810492874053261314e+00,1.640217863336178539e+01
-5.603416067842650783e+00,9.419800044904180769e-01,1.640191732485636322e+01
-5.797434359294872941e+00,-3.081539188604071056e-03,1.640203162924465019e+01
-5.805596425591004639e+00,-1.038641984513631655e+00,1.640208771842529245e+01
-5.730125299175435671e+00,-2.101513309613502578e+00,1.640088239244935409e+01
-5.339939518017750686e+00,-3.017807283448927347e+00,1.640218605922748552e+01
-4.934611295628361205e+00,-3.962215597462547922e+00,1.640295577717159858e+01
-4.384218674077061451e+00,-4.861013758496847359e+00,1.640345620371492785e+01
-3.501274962941669511e+00,-5.378119302426676462e+00,1.640242938327636324e+01
-2.750918906685827725e+00,-6.025519297372383676e+00,1.640095901872357942e+01
-1.852145393659090367e+00,-6.501120396871706397e+00,1.640098384090238781e+01
-7.968495845236901465e-01,-6.858733102410212723e+00,1.640189850350687806e+01
3.830485770687807046e-01,-7.188964214388625429e+00,1.640220667986484315e+01
1.589063923085765051e+00,-7.229413885427735664e+00,1.640232387765419375e+01
2.791950153164307391e+00,-6.972185892969082310e+00,1.640279941985364331e+01
3.864646176988989268e+00,-6.380968058811455457e+00,1.640252067748008713e+01
4.767278456449078661e+00,-5.558730439331059259e+00,1.640211421137330916e+01
