-2.800593526434647096e-01,-1.331311050730427326e+01,1.961763339477510470e+01
1.861268184423588323e+00,-1.310872995367336635e+01,1.961763342675802946e+01
3.914067776940201249e+00,-1.248074406529714153e+01,1.961763341850944897e+01
5.772006544671983264e+00,-1.150685781223828563e+01,1.961763349888691721e+01
7.413025559863807956e+00,-1.028069161943558640e+01,1.961763351952437517e+01
8.835025976240554968e+00,-8.870765138584282283e+00,1.961763346489451365e+01
1.004624400713615273e+01,-7.299862231676080171e+00,1.961763349809334755e+01
1.102913400766408358e+01,-5.609965139008969537e+00,1.961763351448306025e+01
1.175686859779242432e+01,-3.840790222697207934e+00,1.961763349007487278e+01
1.220548815350121963e+01,-1.980081051952615079e+00,1.961763351099244446e+01
1.233910460772312057e+01,-8.791826507870487140e-02,1.961763353015160760e+01
1.212686973600728635e+01,1.789940650532734212e+00,1.961763350026717134e+01
1.159597265297593971e+01,3.604052096848081366e+00,1.961763347729231910e+01
1.077524997134795548e+01,5.294181293115376441e+00,1.961763335035627165e+01
9.743381719097653715e+00,6.846001451676910321e+00,1.961763331420483425e+01
8.383102301615387830e+00,8.104772520801207136e+00,1.755779844828595415e+01
6.985677885870543058e+00,9.173283585968583509e+00,1.755740107308785625e+01
5.482132972562951956e+00,1.009037438522782537e+01,1.755875563162140551e+01
3.855240436261728743e+00,1.081400456548537825e+01,1.755877075985499047e+01
2.139692840345887248e+00,1.124963859623044726e+01,1.755775188166484568e+01
3.785430447049622504e-01,1.141013284619701551e+01,1.755879718482088947e+01
-1.340665682171887418e+00,1.124373102789511591e+01,1.755739601759156443e+01
-3.030197394666433119e+00,1.084899411127566182e+01,1.755721603881360693e+01
-4.629610278425707826e+00,1.023490039740244661e+01,1.755863107051030170e+01
-6.132582300282008347e+00,9.418784249996663860e+00,1.755840881432150979e+01
-7.529876908359902643e+00,8.379936759928632739e+00,1.755739526769548320e+01
-8.732926167120659500e+00,7.124423080268496911e+00,1.755843857351407067e+01
-9.774884802045763266e+00,5.702865801070219121e+00,1.755784642988673383e+01
-1.070586096889869587e+01,4.163343666122138131e+00,1.755781199131950032e+01
-1.148649355620561785e+01,2.465275686214257522e+00,1.755875061297003370e+01
-1.206031477129536711e+01,6.180702029093553262e-01,1.755857637232921675e+01
-1.239710733652036900e+01,-1.348295320820226628e+00,1.755874095949791780e+01
-1.235942657271321821e+01,-3.407583801673182311e+00,1.755758175962672496e+01
-1.187790061041785528e+01,-5.449700147172814368e+00,1.755709364101041814e+01
-1.098561639580147009e+01,-7.357391369556400385e+00,1.755808258182670301e+01
-9.739106680982805742e+00,-9.083133593832867447e+00,1.755925083255255359e+01
-8.208231689628336269e+00,-1.055697484921217111e+01,1.755919760845739219e+01
-6.405273395069995601e+00,-1.173015548260859831e+01,1.755752117089281583e+01
-4.453537861203034076e+00,-1.264102570478515553e+01,1.755780170885013902e+01
-2.391719728991065885e+00,-1.323874766206419373e+01,1.755874829519156322e+01
-2.552581626501404521e-01,-1.339560492977257766e+01,1.755777913141539770e+01
1.889818669783755789e+00,-1.323925553274793998e+01,1.755781014247431671e+01
3.953396115160790814e+00,-1.262797971387991680e+01,1.755754922851278010e+01
5.849611841965715264e+00,-1.171078142516014964e+01,1.755767176592536671e+01
7.572044735062114285e+00,-1.048165283615329280e+01,1.755843440673863043e+01
9.002004866921192061e+00,-9.012267245588345688e+00,1.755836727345836934e+01
1.027171778496144938e+01,-7.465662996404554441e+00,1.755889493256560741e+01
1.121681415234453105e+01,-5.681153006287738449e+00,1.755911666014677408e+01
1.186043585073916340e+01,-3.851523386425236062e+00,1.755850474705830067e+01
1.224630433259721407e+01,-1.965523949712085994e+00,1.755729847798044929e+01
1.232006281802276249e+01,-3.547726855800498180e-02,1.755654395946047330e+01
1.208608714255767502e+01,1.831051706492992981e+00,1.755637717106020901e+01
1.156594297717894904e+01,3.619553798743012418e+00,1.755758835428334308e+01
1.073019986226303146e+01,5.278949652025778150e+00,1.755794827918208512e+01
9.640523883969086327e+00,6.797137019747075293e+00,1.755799393854736223e+01
8.289010964278167748e+00,8.025907812691698950e+00,1.549852644100820953e+01
6.888918827002163958e+00,9.066377832082542554e+00,1.549836710094692904e+01
5.381731122347846785e+00,9.937011523349037034e+00,1.549866019503298453e+01
3.772172171996434731e+00,1.064188288004773142e+01,1.549922406102601968e+01
2.088360762459127162e+00,1.109075104813028467e+01,1.549885859949674405e+01
3.682866414888090190e-01,1.126883255504929160e+01,1.549758935871659737e+01
-1.347337593263513433e+00,1.117492944491908347e+01,1.549850285863071697e+01
-3.053320447938887128e+00,1.084039916692324290e+01,1.549862536537726854e+01
-4.690172790205365594e+00,1.027523188818720357e+01,1.549843274885122213e+01
-6.230289480121165901e+00,9.490221999829046240e+00,1.549895686638464376e+01
-7.641309402807794804e+00,8.463135177302834933e+00,1.549846563594576843e+01
-8.841674238580095491e+00,7.178304119299975028e+00,1.549852532102399216e+01
-9.835425352213874817e+00,5.731734263561259368e+00,1.549938063052972126e+01
-1.073413491142996357e+01,4.162232024272652708e+00,1.549880349140931024e+01
-1.148745476059946746e+01,2.436561306928805237e+00,1.549794086517852421e+01
-1.202173886859778840e+01,5.870451406322431120e-01,1.549842223260425200e+01
-1.234303113641345107e+01,-1.356464451600411847e+00,1.549900441615398528e+01
-1.232331222855551545e+01,-3.398990172860180792e+00,1.549828310670031861e+01
-1.184917306806701909e+01,-5.446140099376405530e+00,1.549765038484859403e+01
-1.097340508021211036e+01,-7.374052119610935208e+00,1.549843010958608147e+01
-9.740898092770775563e+00,-9.125415993105510992e+00,1.549912725493072863e+01
-8.225086814853035833e+00,-1.061928040672161622e+01,1.549944499834829514e+01
-6.432511815924071286e+00,-1.182263144201806782e+01,1.549825894124889381e+01
-4.464489231067607200e+00,-1.273815131069083506e+01,1.549854408296831565e+01
-2.356792781209665399e+00,-1.332570427057877005e+01,1.549930014947533508e+01
-2.394569008844742442e-01,-1.346014488399740117e+01,1.549884373426986883e+01
1.902962379553931660e+00,-1.330043759485638155e+01,1.549846104585162720e+01
3.950125276228663385e+00,-1.269588030672699475e+01,1.549839545520998030e+01
5.857479988958896655e+00,-1.179500536619122286e+01,1.549812467630767010e+01
7.610541859486791516e+00,-1.058332366378868983e+01,1.549771862001269085e+01
9.071260231559403309e+00,-9.104720555847512387e+00,1.549784514126224799e+01
1.036554423704713201e+01,-7.533136420919297471e+00,1.549826707977954321e+01
1.130693380630043876e+01,-5.757659573961253052e+00,1.549941296869744889e+01
1.195179519758320019e+01,-3.878286173764683653e+00,1.549967581725286081e+01
1.231548977084089813e+01,-1.986869010978653760e+00,1.549912366086309135e+01
1.233728450753945971e+01,-5.422584464477837179e-02,1.549858785569753294e+01
1.204404539302810306e+01,1.812107275605439716e+00,1.549878308621616618e+01
1.150476529178303409e+01,3.594198172052658347e+00,1.549937670459564210e+01
1.065797699206411231e+01,5.236314373785742049e+00,1.549851926639172106e+01
9.552911171661028433e+00,6.731184128067935646e+00,1.549812919907980202e+01
8.168314879447876820e+00,7.903576355247779794e+00,1.343858760105269745e+01
6.813567197921283736e+00,8.944267509359914214e+00,1.343936452365474921e+01
5.298489866053058606e+00,9.777278845782745975e+00,1.343851259420097399e+01
3.705878366681211844e+00,1.044147665469139952e+01,1.343919843093005362e+01
2.036525350187083028e+00,1.088800576304346457e+01,1.343891909192385192e+01
3.401839112465091519e-01,1.104449822860322783e+01,1.343802527980338368e+01
-1.368669752771221937e+00,1.097392536168640298e+01,1.343846637572606895e+01
-3.035567628319065125e+00,1.068711011895397966e+01,1.343885918741609409e+01
-4.667786644190946355e+00,1.013842990953478207e+01,1.343984975890970013e+01
-6.191119697238421260e+00,9.387725259856676274e+00,1.343961838143352594e+01
-7.609064633174297931e+00,8.373574068333253351e+00,1.343756311795972636e+01
-8.802833904159422573e+00,7.114721599846088651e+00,1.343728510474672255e+01
-9.794042524958067375e+00,5.657467961671962087e+00,1.343962509986630316e+01
-1.065656490542987456e+01,4.100330981871798564e+00,1.343912297112337662e+01
-1.137233168229564662e+01,2.388559616702008448e+00,1.343780476164336868e+01
-1.186968142708605711e+01,5.536204672709350572e-01,1.343900483336028806e+01
-1.214749796400996118e+01,-1.331604323493956077e+00,1.343890275763836328e+01
-1.209175438203985919e+01,-3.356402411005136255e+00,1.343852311544440248e+01
-1.164821733837768925e+01,-5.336099121502545728e+00,1.343829451750251458e+01
-1.083999237864660969e+01,-7.265091838233512789e+00,1.343903448609130002e+01
-9.670568379493227340e+00,-9.052341164687371489e+00,1.343869531121744387e+01
-8.182931628181636441e+00,-1.058461333862834408e+01,1.343799041991458765e+01
-6.418673616843880048e+00,-1.184056673109759217e+01,1.343806820040737904e+01
-4.442360229119859838e+00,-1.277095823417987219e+01,1.343830949510739003e+01
-2.346267715589133385e+00,-1.332953980707754482e+01,1.343915006296170311e+01
-2.340336843941757394e-01,-1.344664268179845301e+01,1.343899079012201092e+01
1.885887745954499373e+00,-1.322311362563757164e+01,1.343832238923192790e+01
3.907165775360861293e+00,-1.261243272982465946e+01,1.343956317355608121e+01
5.780570527566900374e+00,-1.170897988740296292e+01,1.343955942235425738e+01
7.499666398866895456e+00,-1.052353176697787873e+01,1.343852318243306243e+01
8.982650889007739892e+00,-9.101986599062804828e+00,1.343895317205293161e+01
1.026778749264216906e+01,-7.519930064876542808e+00,1.343960136131252447e+01
1.124238276471416498e+01,-5.771685696172974112e+00,1.343871681849130439e+01
1.191339997190861055e+01,-3.933971155426446042e+00,1.343846113253604635e+01
1.227810866603698159e+01,-2.025424451483587962e+00,1.343907408731464415e+01
1.227013669839022469e+01,-1.102617155661030773e-01,1.343877145688402663e+01
1.192996133445295115e+01,1.777635431847669256e+00,1.343885274893362691e+01
1.136132990412003352e+01,3.558401957046961606e+00,1.343914765479676809e+01
1.050352521225651792e+01,5.201787951638896956e+00,1.343930162734462996e+01
9.417593142653316818e+00,6.639887362376049929e+00,1.343895702105965029e+01
8.020840298694189130e+00,7.764330516816770889e+00,1.138035283451649526e+01
6.668460245951347787e+00,8.809243958103124328e+00,1.137935485879031816e+01
5.179244232324323960e+00,9.597755915131855886e+00,1.137903994381300521e+01
3.604159552256082755e+00,1.023046287446594249e+01,1.138030544023642143e+01
1.956928990037390736e+00,1.066135106558827061e+01,1.137918801348595288e+01
2.953225104561871261e-01,1.078876867578616761e+01,1.137837587939434236e+01
-1.379014489652648390e+00,1.071460557437695904e+01,1.137868544004960292e+01
-3.021242351164553863e+00,1.041171043915182892e+01,1.137761762245155950e+01
-4.577139118730395140e+00,9.896975638629420757e+00,1.137847847455026162e+01
-6.085679606685726384e+00,9.148982779321405800e+00,1.138014828466615214e+01
-7.468795766188808471e+00,8.172822303588151982e+00,1.137862489341186034e+01
-8.681382706605543120e+00,6.952264743666345836e+00,1.137880670113190007e+01
-9.645782129470822142e+00,5.548607732440027362e+00,1.138058988888046485e+01
-1.051198144570608051e+01,4.001882608906768724e+00,1.137892654010747506e+01
-1.117810382544078962e+01,2.340101838810081158e+00,1.137838804725313935e+01
-1.163681674274316080e+01,5.468756013446520736e-01,1.137941396058368859e+01
-1.184604958130446839e+01,-1.332194571825185303e+00,1.137973779071899294e+01
-1.175356144497885325e+01,-3.259471081017387917e+00,1.137963179467711150e+01
-1.133252866651275603e+01,-5.174694181360097289e+00,1.137889334265827124e+01
-1.057824474341796694e+01,-7.107998330154922328e+00,1.137864423867566188e+01
-9.503840660912802107e+00,-8.902215947376989291e+00,1.137897717122337049e+01
-8.086129255666911320e+00,-1.043763669833770358e+01,1.137923609350546172e+01
-6.365758449603618807e+00,-1.173586923805912541e+01,1.138010705353976704e+01
-4.411855147263543664e+00,-1.266193524896324085e+01,1.137927257246480117e+01
-2.317527331225643028e+00,-1.320306268387761861e+01,1.137832456084622024e+01
-2.009934801589672859e-01,-1.331226697426610706e+01,1.137902846436495174e+01
1.848145666379388707e+00,-1.302400176980057545e+01,1.137998739377491653e+01
3.818996601866327278e+00,-1.240862449292483127e+01,1.138017422492614550e+01
5.666452801694837227e+00,-1.151599293477118380e+01,1.137947546085639594e+01
7.359841437461605906e+00,-1.036095363301490480e+01,1.137855313034972760e+01
8.849999860487129055e+00,-9.005618083209775193e+00,1.137845216627814793e+01
1.008340750444922662e+01,-7.428504782122073102e+00,1.137929827457095655e+01
1.110363001352659751e+01,-5.734155151446405085e+00,1.137831195846482757e+01
1.181312216047538755e+01,-3.947029489039542760e+00,1.137872197540824715e+01
1.216690335465898620e+01,-2.035698857179246701e+00,1.138019827369961590e+01
1.213191182920887989e+01,-1.282079466045197291e-01,1.137927370473588873e+01
1.175713555629995533e+01,1.728243636406205708e+00,1.137804811973658303e+01
1.117412466977463481e+01,3.504819855975045861e+00,1.137809678560071447e+01
1.032980614822806054e+01,5.106403166300319540e+00,1.137906182096693541e+01
9.251488168681758495e+00,6.524800001070929056e+00,1.138012114610977221e+01
7.840713939177994085e+00,7.620933913111949565e+00,9.319118856076570978e+00
6.488447442422493161e+00,8.646622574318520549e+00,9.319946106468233182e+00
5.022874513666955920e+00,9.425835965004059958e+00,9.319925730678466635e+00
3.460062400859125642e+00,1.002084991903199906e+01,9.319703823473684423e+00
1.855074490990756164e+00,1.041891664252092475e+01,9.320060170122074439e+00
2.204211448066540624e-01,1.051983341531018823e+01,9.320224927953244531e+00
-1.381452365989739972e+00,1.042453398974144818e+01,9.320109596336351387e+00
-2.958129265980735667e+00,1.011624009939423985e+01,9.319874015185082072e+00
-4.485416266950233322e+00,9.588614424279279902e+00,9.319123203771452424e+00
-5.939905676683275182e+00,8.856073633995537264e+00,9.319445281693274907e+00
-7.287981464118427510e+00,7.892017015333204100e+00,9.320290029481503424e+00
-8.485400242664168147e+00,6.753822290593533673e+00,9.320930815151966087e+00
-9.465805830567393997e+00,5.391811492624456470e+00,9.319974245450271866e+00
-1.029078232869403209e+01,3.907078552070421651e+00,9.319114515761540929e+00
-1.093602110257075921e+01,2.286127203689908072e+00,9.319600354543529974e+00
-1.134201403502472694e+01,5.373358479405583310e-01,9.320167977675641424e+00
-1.150464405642100552e+01,-1.300420334448773030e+00,9.320410749995909683e+00
-1.138577688904210738e+01,-3.135037658153231099e+00,9.319464513041422649e+00
-1.096370468424978206e+01,-5.002535102989745575e+00,9.318873091328923053e+00
-1.026678990052349683e+01,-6.859111500591393629e+00,9.319752150011749947e+00
-9.257460242552532748e+00,-8.612732793374556550e+00,9.319568657500468589e+00
-7.896143028547053966e+00,-1.014544866289011793e+01,9.320434771779011029e+00
-6.227076130964475986e+00,-1.144408343761463165e+01,9.319474554277503486e+00
-4.326195982571142018e+00,-1.236773118927241732e+01,9.320028264657521433e+00
-2.283720422275259399e+00,-1.289762335934365822e+01,9.321432381809946932e+00
-2.137987526758201862e-01,-1.301492084508726066e+01,9.320391513415685836e+00
1.825043108033017836e+00,-1.270720741704437273e+01,9.319336793367515526e+00
3.753921420564838130e+00,-1.212132662311711861e+01,9.318472552703646272e+00
5.547288142476134887e+00,-1.126698447218880261e+01,9.319256283355862536e+00
7.223850846162519268e+00,-1.016703114950789733e+01,9.320208402537458525e+00
8.720274528769623501e+00,-8.867492387958053612e+00,9.319205403158047574e+00
9.924970742722567962e+00,-7.298869309324925503e+00,9.319273983410786499e+00
1.093950882439857786e+01,-5.659060699134799144e+00,9.319438687941527633e+00
1.167192456130446843e+01,-3.893070380893219440e+00,9.319369222561533661e+00
1.201788566925398705e+01,-2.010727647757526437e+00,9.319967895323962637e+00
1.197107112033720533e+01,-1.275078790365598569e-01,9.319520234794644864e+00
1.157731610472892037e+01,1.709451224793556712e+00,9.319860277526514025e+00
1.098425399036830186e+01,3.436832449100309272e+00,9.320237837334685693e+00
1.012134068493266525e+01,5.029497287013431794e+00,9.319346726543859205e+00
9.051092212891511224e+00,6.416151854727083048e+00,9.318724858375086129e+00
7.632597137610966698e+00,7.471112673998397291e+00,7.260114542577596808e+00
6.289828574217345647e+00,8.465133202541005986e+00,7.260162236031792560e+00
4.857376278055683727e+00,9.256940081012109189e+00,7.260092771994590244e+00
3.324337665392268271e+00,9.836718046148208217e+00,7.260139365434132408e+00
1.737259977148096102e+00,1.018184380785071852e+01,7.260387088067743910e+00
1.528364050914015893e-01,1.027553286221347761e+01,7.260117016735696538e+00
-1.398051255977275087e+00,1.015562266471494191e+01,7.259323484697510764e+00
-2.927850554500521341e+00,9.813870474310363079e+00,7.260064593611613937e+00
-4.401574341753658359e+00,9.284918830307976378e+00,7.260187245684119439e+00
-5.766000967805704924e+00,8.557048503901819814e+00,7.259674223920101532e+00
-7.064002917028577855e+00,7.625859183792426776e+00,7.258657060704576836e+00
-8.268632342981623751e+00,6.538301958493231147e+00,7.259131884670431134e+00
-9.254549207795655263e+00,5.255513550664910660e+00,7.259850450277623324e+00
-1.004422392831843602e+01,3.788734422428241544e+00,7.259516415362702979e+00
-1.066234937081625667e+01,2.245877079196152426e+00,7.259855501159869107e+00
-1.101594821395539370e+01,5.196476884052997347e-01,7.260165740587747329e+00
-1.113602164693741692e+01,-1.238524065553563203e+00,7.259388757186841623e+00
-1.100071100852822781e+01,-3.019428063111080363e+00,7.260429449981008254e+00
-1.058112685138052100e+01,-4.804858530094091584e+00,7.261447478146108914e+00
-9.886821811426353079e+00,-6.589412490795442778e+00,7.260408912573285356e+00
-8.927850017616096423e+00,-8.253983544429321029e+00,7.259850519040037753e+00
-7.615829281220503510e+00,-9.751129887188643153e+00,7.260140729700695239e+00
-6.023434576104273575e+00,-1.099398163115529847e+01,7.260263923157336485e+00
-4.201389875914989247e+00,-1.190503359607546408e+01,7.260892399869076641e+00
-2.240698269233950768e+00,-1.242706123487190339e+01,7.260858680107719287e+00
-2.225406607758464717e-01,-1.255337629065810567e+01,7.260145891949933983e+00
1.741713774121388836e+00,-1.227670160237648034e+01,7.260774667927185178e+00
3.616510596351491635e+00,-1.174635480702024992e+01,7.260730685273120599e+00
5.373459520946203050e+00,-1.095411329573064663e+01,7.259794786141062772e+00
7.024374682074667753e+00,-9.909298116900517428e+00,7.258919921738549164e+00
8.500417587840262357e+00,-8.680991846487286168e+00,7.259438326878696834e+00
9.714807782485927135e+00,-7.164479535382714204e+00,7.259511470130795452e+00
1.070126350447656094e+01,-5.530500013777763790e+00,7.259756498245524270e+00
1.140180674072049882e+01,-3.767235441657108996e+00,7.260543833687385984e+00
1.174238752908564898e+01,-1.936897660353206208e+00,7.260362242303988189e+00
1.170215632157056262e+01,-9.473029235908653201e-02,7.259090397866858169e+00
1.133588833594131629e+01,1.705656248040559930e+00,7.260248316289489523e+00
1.072335205718438722e+01,3.395648795275437504e+00,7.260115170332095857e+00
9.865903638348809679e+00,4.945303383323898849e+00,7.259542930656803783e+00
8.828167934118377858e+00,6.299406790489463503e+00,7.259871758016690713e+00
7.413450025851253677e+00,7.335704506771499211e+00,5.201066813716733961e+00
6.086389990869087718e+00,8.307269328400872510e+00,5.199932460837789705e+00
4.686424334025802274e+00,9.118985496429004911e+00,5.200264048077257506e+00
3.191940247642730100e+00,9.672586352595255121e+00,5.201139757067505975e+00
1.649740396880383209e+00,9.965323221107965423e+00,5.200162101525466873e+00
1.084463841344856933e-01,1.006701817890628625e+01,5.199766613081399314e+00
-1.419520097316759877e+00,9.925920459179851107e+00,5.199914618250336851e+00
-2.876618562326103579e+00,9.573687532041027737e+00,5.201401017715377328e+00
-4.308317725233683504e+00,9.027640768685378347e+00,5.201493530176010793e+00
-5.640880755762931464e+00,8.299459804207943492e+00,5.200366360389382159e+00
-6.881432940239657015e+00,7.398875364045539804e+00,5.200699353891745425e+00
-8.039755773560219865e+00,6.357761217421023403e+00,5.201032343921568213e+00
-9.045126571787069025e+00,5.099661961880292083e+00,5.201982515467593160e+00
-9.806055547084149282e+00,3.685610560883860742e+00,5.201107640540693744e+00
-1.038483557295659132e+01,2.163447325797377196e+00,5.200460273709263781e+00
-1.068248803206754616e+01,5.219158156493466372e-01,5.200889438455785552e+00
-1.074187743697428132e+01,-1.157530565344222717e+00,5.200641498825415709e+00
-1.059134850420960383e+01,-2.862082119091412746e+00,5.200128857017308981e+00
-1.015689467473094076e+01,-4.586229739569195551e+00,5.200696129640427046e+00
-9.491859347955747594e+00,-6.245429734217769813e+00,5.201688196676319542e+00
-8.522088747109451745e+00,-7.845449668708166513e+00,5.200785709376472887e+00
-7.258730819383334421e+00,-9.261395271866568635e+00,5.200074603369126081e+00
-5.759309342785550179e+00,-1.042463687600430156e+01,5.200306921535617910e+00
-4.025367727477563662e+00,-1.129977011719353364e+01,5.201095598935472353e+00
-2.180886954214222850e+00,-1.180165076653870493e+01,5.200954971443389141e+00
-2.477967212662857410e-01,-1.192502368925538825e+01,5.200508531496503828e+00
1.635804172316360328e+00,-1.170802150139603803e+01,5.201038228956976539e+00
3.438526658183004958e+00,-1.124067072244760901e+01,5.200248281036600417e+00
5.130701132569808642e+00,-1.050891776522738574e+01,5.200447058082297680e+00
6.737898366391351423e+00,-9.520697814322394592e+00,5.200799312325270485e+00
8.187923115394577067e+00,-8.342135581226143515e+00,5.199824711413048917e+00
9.377506476215337727e+00,-6.953240375197829337e+00,5.200053424521930090e+00
1.029753590085574011e+01,-5.333469374391292206e+00,5.200898351397474251e+00
1.095077706096861192e+01,-3.620861131037137248e+00,5.200868859397223432e+00
1.130359794429973697e+01,-1.846916101170677171e+00,5.199923175596676828e+00
1.130896907293073816e+01,-4.444170996204491186e-02,5.200005180777735880e+00
1.100286921969141751e+01,1.697887130913674048e+00,5.199998315598513443e+00
1.039215872492302140e+01,3.331656428905167111e+00,5.200054956358574287e+00
9.567746799187103690e+00,4.837215718126531172e+00,5.200189312390966379e+00
8.571034064656021911e+00,6.186360042973277906e+00,5.200751669204002781e+00
7.184980878289996653e+00,7.201929238185398319e+00,3.140749024819123214e+00
5.892775295597229679e+00,8.166928553707114347e+00,3.140204495128658291e+00
4.536313582578774373e+00,8.966591790495535008e+00,3.140181914051424883e+00
3.067654034694508702e+00,9.510334823247825753e+00,3.140916304570834150e+00
1.578249743694117857e+00,9.768264353651208154e+00,3.140856052416135746e+00
7.957911030487327397e-02,9.886084358124485050e+00,3.140908401602965583e+00
-1.407632875558046948e+00,9.726896647499341242e+00,3.140459995268311211e+00
-2.854270821683742021e+00,9.357331649497126591e+00,3.141106112383050153e+00
-4.226221499063258946e+00,8.828904054336817353e+00,3.141046714962125286e+00
-5.526374107759480125e+00,8.095132700190486474e+00,3.140598544244989743e+00
-6.722901891231404470e+00,7.205929821340848918e+00,3.141371498189964306e+00
-7.834521164352079126e+00,6.178678246162251142e+00,3.141989716436638158e+00
-8.804495535228610947e+00,4.962223792871824024e+00,3.141480139690912221e+00
-9.557774034027346488e+00,3.603819547531044609e+00,3.140405824588112349e+00
-1.009195505956038552e+01,2.092274664739661727e+00,3.140229184908631677e+00
-1.034632859662133164e+01,5.108287669379496521e-01,3.140455750335393592e+00
-1.033958900419752602e+01,-1.099254324228208457e+00,3.141396800317659554e+00
-1.012983370835608277e+01,-2.744447283233982571e+00,3.141017592683470916e+00
-9.701522517298242221e+00,-4.348303679792615561e+00,3.139891994220464611e+00
-9.022021074457347467e+00,-5.916449183143921431e+00,3.139555241943083441e+00
-8.089616121947006633e+00,-7.389207042656714464e+00,3.139766118893432267e+00
-6.882373527709602534e+00,-8.681029398624030335e+00,3.140305057422404733e+00
-5.444133950094129482e+00,-9.787798859649557315e+00,3.140986984601870091e+00
-3.824368971870887979e+00,-1.058913411847858477e+01,3.140684236718363387e+00
-2.066936904807521014e+00,-1.104209261056799285e+01,3.139398341007752613e+00
-2.768321212651858043e-01,-1.117147430220564530e+01,3.139892991355301533e+00
1.522836242862849243e+00,-1.103863922855282631e+01,3.140754857904783925e+00
3.233497746462160816e+00,-1.059737268150164269e+01,3.140170244637281449e+00
4.848817863957020080e+00,-9.900975056148675790e+00,3.139739937857935814e+00
6.352922256586809091e+00,-8.995326086143348832e+00,3.139675950038224528e+00
7.726958252454585896e+00,-7.888962888622685909e+00,3.139844091650027647e+00
8.913052884428013911e+00,-6.602484204373824994e+00,3.141608918741224610e+00
9.769978635929241761e+00,-5.036149325526603882e+00,3.141260634397771589e+00
1.037084667558573692e+01,-3.404854755123689625e+00,3.140914434285772217e+00
1.076062401376286637e+01,-1.722428566809301564e+00,3.141488888172343064e+00
1.082893664988226412e+01,-3.580375823774628596e-03,3.141053253989210425e+00
1.056799514777502758e+01,1.673162502282888431e+00,3.140774252229039831e+00
9.993521661003363477e+00,3.266518111159485649e+00,3.140478395886097118e+00
9.235555565489912411e+00,4.716111238219808044e+00,3.140283892344228001e+00
8.313147908079415060e+00,6.041769339277203166e+00,3.140600910542418855e+00
6.932381733699941151e+00,7.033100073361324256e+00,1.080974682788488295e+00
5.719517097601352518e+00,7.987642754259206335e+00,1.080897889767963527e+00
4.386017998749646374e+00,8.788987166091693837e+00,1.081334130783717429e+00
2.956368270502010898e+00,9.320134887357758302e+00,1.081114688310836680e+00
1.515028185680270534e+00,9.580176886852424190e+00,1.081245364184198143e+00
4.857999223638936881e-02,9.691082973245391585e+00,1.081451222629007392e+00
-1.399717584025813588e+00,9.531857814633413639e+00,1.081398299816013209e+00
-2.799325946424659595e+00,9.162856127561525454e+00,1.081208985307054116e+00
-4.130824704329572938e+00,8.641398241439413042e+00,1.080582403378864464e+00
-5.397779723724087653e+00,7.915133457776757808e+00,1.080093423212535875e+00
-6.554869672749124021e+00,7.043584493321028539e+00,1.080995319285334322e+00
-7.618845687482352247e+00,6.006016851917820532e+00,1.081499696445220149e+00
-8.531564949803986053e+00,4.829459360063370177e+00,1.080641845370583498e+00
-9.268816421963411045e+00,3.482663812700019346e+00,1.080641294673290842e+00
-9.742651051012533259e+00,2.029753344235012857e+00,1.082000374261560927e+00
-9.968695363860057057e+00,5.118193245617503884e-01,1.082131979406844025e+00
-9.933132420463429924e+00,-1.061388526191569648e+00,1.081622162922308172e+00
-9.653051368473864358e+00,-2.607448250080940610e+00,1.081246656186553468e+00
-9.181412848658963455e+00,-4.145897197524054612e+00,1.081568111026711465e+00
-8.524480664935634167e+00,-5.569521387245196742e+00,1.080942420796432879e+00
-7.621005774979176195e+00,-6.937669816430589442e+00,1.080452169634545934e+00
-6.453443925119480618e+00,-8.136081643654106799e+00,1.081744937871540024e+00
-5.110460622105060580e+00,-9.119794123627812610e+00,1.082155537233743914e+00
-3.578022683655603942e+00,-9.838320323073251217e+00,1.081990723467543658e+00
-1.936971584962176918e+00,-1.023451392598067855e+01,1.081817365476510417e+00
-2.595208935285773233e-01,-1.038820744080659075e+01,1.081442100216706947e+00
1.426870567629071829e+00,-1.030010425781811634e+01,1.080927220098420349e+00
3.012314264270337993e+00,-9.864891916247611192e+00,1.080851219088172277e+00
4.506939178427980863e+00,-9.236748755631600361e+00,1.080844209334223649e+00
5.928846042689801976e+00,-8.385633171627045357e+00,1.080713352854530740e+00
7.228809674404052643e+00,-7.350915965392715634e+00,1.081019008528006919e+00
8.353253262578707705e+00,-6.152888049050756258e+00,1.082124740855816780e+00
9.180063546510469408e+00,-4.715042808791515938e+00,1.082053882815562362e+00
9.798229041999261923e+00,-3.197435420256646843e+00,1.081415145608496386e+00
1.021876195039986435e+01,-1.608441208802639633e+00,1.080547955635533741e+00
1.029378711671672519e+01,2.976897440462342170e-02,1.080396371124834554e+00
1.006630809889123945e+01,1.629293630117305325e+00,1.081463633708237948e+00
9.561225433586711731e+00,3.166016194056542776e+00,1.082121932334873193e+00
8.861546329028843871e+00,4.578376374785814384e+00,1.081747998232495123e+00
7.989725229758546377e+00,5.882494038233812006e+00,1.081313827998171773e+00
6.628102446788335378e+00,6.819928055671602429e+00,-9.767068401611176398e-01
5.479528717418650885e+00,7.767330688581931319e+00,-9.772565332816367523e-01
4.192324146208246560e+00,8.548900982524177294e+00,-9.774933969505648079e-01
2.810532748751004561e+00,9.068921168578141234e+00,-9.780540324722388767e-01
1.403354148029042126e+00,9.338932020820164936e+00,-9.790569383103644441e-01
-1.061367490651844714e-02,9.433526041699899167e+00,-9.784491809468147672e-01
-1.405861772469116255e+00,9.274471660650604576e+00,-9.777380450895221120e-01
-2.753060280174328245e+00,8.933851533960588398e+00,-9.775304496651837649e-01
-4.063658825731420343e+00,8.389078629285579680e+00,-9.773065801799084573e-01
-5.255944436362924854e+00,7.706558155703145729e+00,-9.777181520110724833e-01
-6.361005582936958724e+00,6.855056370097175389e+00,-9.786258582860950517e-01
-7.368335235639863257e+00,5.831276282614292761e+00,-9.780644928443453789e-01
-8.224774170181840205e+00,4.666835933765018041e+00,-9.780915082247196857e-01
-8.888193739189206966e+00,3.361502152960271772e+00,-9.781679107971044118e-01
-9.301245241504561889e+00,1.947267942572417088e+00,-9.778205330616148716e-01
-9.495891890597132345e+00,5.036579696972360853e-01,-9.781079059232966610e-01
-9.457623658686596713e+00,-1.003384378108969743e+00,-9.787966960280503059e-01
-9.140341468628548682e+00,-2.477257841962218432e+00,-9.781137687194259023e-01
-8.630072290891373399e+00,-3.905525207298692347e+00,-9.781299046144170672e-01
-7.983035986511005433e+00,-5.236328276267864901e+00,-9.788997409254492910e-01
-7.120782507157851882e+00,-6.474967447903918760e+00,-9.789840652960895007e-01
-6.011811090584083139e+00,-7.597711785937654838e+00,-9.783345551105945281e-01
-4.738277370881404771e+00,-8.476039231326886636e+00,-9.778061532768957953e-01
-3.309677291611976990e+00,-9.106949940984714331e+00,-9.781898834275076782e-01
-1.796511633311566269e+00,-9.449406076823235523e+00,-9.785259222534632428e-01
-2.362204362767660326e-01,-9.637301183278291106e+00,-9.777605757754097571e-01
1.320796291260197819e+00,-9.549457272881813452e+00,-9.783816792015225250e-01
2.772814359626778913e+00,-9.134760451314296148e+00,-9.785997493738705089e-01
4.174090183414959299e+00,-8.554774670550042259e+00,-9.773973360308234604e-01
5.493140180701799657e+00,-7.788012241161069937e+00,-9.777828013180828171e-01
6.688577209316144412e+00,-6.819210266208169280e+00,-9.787270759098659623e-01
7.757042735526636257e+00,-5.678570490762602674e+00,-9.781021642140218519e-01
8.660202438266717095e+00,-4.408291656613126719e+00,-9.782343140488408695e-01
9.317595012586370018e+00,-3.006793511999222179e+00,-9.782935218544449585e-01
9.661838630468054134e+00,-1.489298344157239162e+00,-9.781005161037708007e-01
9.730795896962440850e+00,6.107504919705078472e-02,-9.788222458930501135e-01
9.551838873996219448e+00,1.584558006071340674e+00,-9.788649805719271679e-01
9.123707270539181735e+00,3.058496196771515852e+00,-9.788854116642815573e-01
8.466620979990745255e+00,4.433995993208742270e+00,-9.787188481852204802e-01
7.627468513961104257e+00,5.703634535782866166e+00,-9.774780068289689039e-01
6.257603901352847942e+00,6.580127741175302525e+00,-3.037266458789721568e+00
5.173409198497241235e+00,7.498007406466768998e+00,-3.037673387277352699e+00
3.927793918741545820e+00,8.238906331782924752e+00,-3.037137919014272658e+00
2.631185940433725445e+00,8.743650362386629737e+00,-3.037119937056170560e+00
1.296946422346163752e+00,9.035414211369843684e+00,-3.038313326079322696e+00
-7.871274565834604497e-02,9.134428300005254187e+00,-3.038528429522261654e+00
-1.424888455052540470e+00,8.965087483833361404e+00,-3.037124761807604489e+00
-2.724303471843506852e+00,8.617533741920642143e+00,-3.038305352970809281e+00
-3.940275211743149431e+00,8.134890497434875911e+00,-3.038529724075553329e+00
-5.096539431198816139e+00,7.475779707542152153e+00,-3.037161550995548076e+00
-6.151980182731092484e+00,6.634800930335345903e+00,-3.037291951250425726e+00
-7.087348251662378473e+00,5.625618275716697703e+00,-3.037300083022558272e+00
-7.865893482994904318e+00,4.476836981165412510e+00,-3.037283497000327515e+00
-8.425396564439951774e+00,3.214846766680268253e+00,-3.037104322391665612e+00
-8.730118126832055125e+00,1.838742684157445240e+00,-3.037329156947591979e+00
-8.880830763896964797e+00,4.937353965345574469e-01,-3.038280321168480569e+00
-8.834063295787858650e+00,-9.142010382892140630e-01,-3.038487279920973005e+00
-8.528477095714443124e+00,-2.313997802787998825e+00,-3.037600156280656272e+00
-8.000678985849640767e+00,-3.604452118070014865e+00,-3.037379008394722746e+00
-7.367974432962411058e+00,-4.845796696947537896e+00,-3.037785493546420135e+00
-6.539627400542996405e+00,-5.988263597404175798e+00,-3.039422832543501762e+00
-5.522558677150242623e+00,-7.021088797726809716e+00,-3.039292671167560744e+00
-4.327644859978030389e+00,-7.821279745420874896e+00,-3.038302706751726756e+00
-3.040100241436263673e+00,-8.368957133732630282e+00,-3.038603337375930469e+00
-1.637181261710849212e+00,-8.691284498011697224e+00,-3.038394089726118796e+00
-2.135355786393789979e-01,-8.893368390073012719e+00,-3.038409949935648058e+00
1.197234982162121764e+00,-8.805287407110615305e+00,-3.037842927516837044e+00
2.560944316439531576e+00,-8.431455789862805972e+00,-3.037595402304765990e+00
3.854195802592053077e+00,-7.918257705651217115e+00,-3.037702259943685590e+00
5.088368045895257374e+00,-7.221640729218404609e+00,-3.037837410187187448e+00
6.218247665990487505e+00,-6.318005474804114563e+00,-3.038518986870005545e+00
7.289168906598797903e+00,-5.300682517319965648e+00,-3.037610019428857555e+00
8.192454788030705259e+00,-4.148818340745710209e+00,-3.038062639204832660e+00
8.777000970839885952e+00,-2.808164954720126616e+00,-3.038658385901806813e+00
9.102584084623901006e+00,-1.360514597444188789e+00,-3.037698547777986313e+00
9.211055015858748973e+00,9.013610743743832865e-02,-3.037444269236364125e+00
9.072225680353811939e+00,1.551577945889084820e+00,-3.037346744021176992e+00
8.674954124492661123e+00,2.977436904889325220e+00,-3.037606629395607438e+00
8.050364521038469334e+00,4.292551881970719130e+00,-3.037925162553901437e+00
7.219998617225590110e+00,5.514185777664154742e+00,-3.037503635123679935e+00
5.818402056943325462e+00,6.284358544640847200e+00,-5.097536639192370878e+00
4.792638876272973469e+00,7.159633492732388582e+00,-5.097442461544825498e+00
3.621090384880250923e+00,7.855309980801132852e+00,-5.097449879003576712e+00
2.420600179884695446e+00,8.372340997486420022e+00,-5.097777085962718502e+00
1.160905693061513366e+00,8.699817282639275007e+00,-5.098154322764113289e+00
-1.332345899901418718e-01,8.790092290409891262e+00,-5.098008653441865157e+00
-1.433304407168791261e+00,8.669344570370995484e+00,-5.097215333904671297e+00
-2.661987796547385265e+00,8.345463922184304550e+00,-5.098092324091690664e+00
-3.834243697465662404e+00,7.847207866949068134e+00,-5.097911709580126072e+00
-4.948731587252058972e+00,7.202628544571680891e+00,-5.096950053567431027e+00
-5.933922756691899281e+00,6.380375573501961384e+00,-5.098171246013063929e+00
-6.780937251758726525e+00,5.389652331959147169e+00,-5.097793145275890225e+00
-7.468733926443419158e+00,4.263043729918607916e+00,-5.097992179564180049e+00
-7.900625076450782380e+00,3.029732951906903171e+00,-5.097415434298733672e+00
-8.094523646812081807e+00,1.733726910563202495e+00,-5.096478846027332033e+00
-8.117603650464376486e+00,4.903364988445297334e-01,-5.096520921586185970e+00
-8.025459720288779408e+00,-7.997180784757491612e-01,-5.098513369771036530e+00
-7.739789908256197393e+00,-2.057774241133579984e+00,-5.096965739802399753e+00
-7.245417877592441158e+00,-3.234313748900428109e+00,-5.096713758051168774e+00
-6.679673427805448149e+00,-4.368628959159860159e+00,-5.097429979222301455e+00
-5.920770145447576738e+00,-5.391119228284626530e+00,-5.097334391545444987e+00
-5.016639376901764535e+00,-6.350840467633323883e+00,-5.096694999865227338e+00
-3.940047966745200192e+00,-7.078969976788891394e+00,-5.097024574580928835e+00
-2.737838338372530878e+00,-7.595082243364560171e+00,-5.097133012169333455e+00
-1.470691125258701160e+00,-7.896366552305621234e+00,-5.097132436501840225e+00
-1.908948574535092868e-01,-8.098622936165011055e+00,-5.098121842695641170e+00
1.073965201593832575e+00,-8.031518766445245205e+00,-5.098011359246450880e+00
2.346945830661885335e+00,-7.731036779655636515e+00,-5.098405762368718008e+00
3.560957497432532204e+00,-7.288876068520609763e+00,-5.097706397388503063e+00
4.783468590975170187e+00,-6.763322817441117962e+00,-5.096658925577791877e+00
5.863988349483012286e+00,-5.926665272250069449e+00,-5.096843115106431732e+00
6.831564796022147945e+00,-4.912097423654471662e+00,-5.097293272582552603e+00
7.666376064696208026e+00,-3.829655590646053209e+00,-5.097831092192041780e+00
8.277174356820609091e+00,-2.598289966133718210e+00,-5.097094035382700561e+00
8.597169863564737113e+00,-1.244693972764699286e+00,-5.097328268898618120e+00
8.705558097912193816e+00,1.358572838038598629e-01,-5.098464626592685178e+00
8.539413611104594182e+00,1.547220274330732614e+00,-5.097573592435224121e+00
8.175957408096607537e+00,2.886180359931667549e+00,-5.097063154686565234e+00
7.582161625073636557e+00,4.141642876059692391e+00,-5.097377010873183067e+00
6.766647952978120273e+00,5.274137403032023386e+00,-5.097507994376745621e+00
5.304867659344462361e+00,5.875215226676845148e+00,-7.157315777363582932e+00
4.386798018476733674e+00,6.682506443918923011e+00,-7.158226131327575459e+00
3.333786459433278893e+00,7.311083567805068739e+00,-7.157380516028103656e+00
2.212884550155394869e+00,7.829214246877556960e+00,-7.157252954172296455e+00
1.065428622842690576e+00,8.175559468206875735e+00,-7.157312952142469875e+00
-1.533567570435995508e-01,8.258292386139844510e+00,-7.156376569644193886e+00
-1.373737378044345370e+00,8.184497594000932352e+00,-7.157244350000341093e+00
-2.534942109984417158e+00,7.902369510862360613e+00,-7.157575665115211372e+00
-3.650119852724003966e+00,7.430355757253630955e+00,-7.157394585033289403e+00
-4.715249746874324188e+00,6.829094847542708457e+00,-7.157101963276477186e+00
-5.656888967154022119e+00,6.052356133224468415e+00,-7.156957633831522614e+00
-6.429990011053329901e+00,5.098022088506985128e+00,-7.156563378921976692e+00
-6.938618088934448203e+00,3.958568136890648681e+00,-7.156833024290692791e+00
-7.251571356208387442e+00,2.784948015072216343e+00,-7.157265591809505167e+00
-7.361871871740017781e+00,1.603728800787187492e+00,-7.157050081534453767e+00
-7.234504826448105774e+00,4.812303195980853765e-01,-7.156390711488544554e+00
-7.093923842736691299e+00,-6.593987589052282550e-01,-7.157615664254996624e+00
-6.775065953436749666e+00,-1.734919567360603931e+00,-7.157456533871235926e+00
-6.393457139642279685e+00,-2.783239972125404194e+00,-7.158242691668999846e+00
-5.911279827549025256e+00,-3.795220207060065576e+00,-7.158076536397741663e+00
-5.254481532341444883e+00,-4.709508983498006174e+00,-7.155985364604711130e+00
-4.481498226089740022e+00,-5.586197089844789687e+00,-7.157256809091554040e+00
-3.550874603882959502e+00,-6.267397443354072450e+00,-7.157419755753138269e+00
-2.491813735607511848e+00,-6.749900905679604435e+00,-7.156329458090757711e+00
-1.350091673148512861e+00,-7.048767303295409903e+00,-7.155998414033109434e+00
-1.816020710675465555e-01,-7.213960343902209971e+00,-7.157615189734515049e+00
9.681203370908472161e-01,-7.162574550814199803e+00,-7.157316645866831806e+00
2.101009341892841942e+00,-6.949100687911310636e+00,-7.156357504710389783e+00
3.229930433077095486e+00,-6.582188235002510268e+00,-7.156932076509880503e+00
4.370440955254905724e+00,-6.148685527463081613e+00,-7.157293757165420267e+00
5.345988791765519998e+00,-5.397237324978131134e+00,-7.157092482461468563e+00
6.283674825981499623e+00,-4.506162346545751873e+00,-7.157036661809400790e+00
7.046758934501425209e+00,-3.486915394359705100e+00,-7.156729474121748424e+00
7.571175824280340194e+00,-2.321400312935991472e+00,-7.156866251545902280e+00
7.843813460426924955e+00,-1.080891446205183737e+00,-7.157032119203894815e+00
7.957291015012245339e+00,2.099526849316477040e-01,-7.156720770305344814e+00
7.821327112441815999e+00,1.499237919737183899e+00,-7.156104574466842116e+00
7.491387664648922140e+00,2.716800651710493231e+00,-7.156769201974206851e+00
6.915889620359052081e+00,3.890993504536462755e+00,-7.157142913440234899e+00
6.150118316660320161e+00,4.948708860986263502e+00,-7.156970327056926706e+00
4.741065564505150931e+00,5.289097372106359884e+00,-9.216873266069852022e+00
3.924260125892283568e+00,6.016754672099263068e+00,-9.216849319605655566e+00
2.968129465205643136e+00,6.571980931919529922e+00,-9.217018082144010194e+00
1.984005248037123303e+00,7.049638297617032201e+00,-9.216986537619975550e+00
9.627023691062739363e-01,7.380176531746430513e+00,-9.217102103781707356e+00
-1.357531301186601647e-01,7.460823068775302325e+00,-9.216682029913892293e+00
-1.230339174190095086e+00,7.398981506662641650e+00,-9.216523206560514936e+00
-2.276989471663545483e+00,7.143288568333634458e+00,-9.216290462886162160e+00
-3.287417249224547255e+00,6.715973243394030234e+00,-9.215911101804474370e+00
-4.215490161595513818e+00,6.156176926588599052e+00,-9.217121824005404918e+00
-5.061587096838769284e+00,5.436434801201190048e+00,-9.216898876093139847e+00
-5.710411091449959287e+00,4.550546670391144133e+00,-9.216198443082442182e+00
-6.107383472170343275e+00,3.531895116798278611e+00,-9.216757297729884613e+00
-6.350177014978929613e+00,2.497885878560901496e+00,-9.216683594906633914e+00
-6.391840983851630575e+00,1.457197860079261220e+00,-9.216472379051582564e+00
-6.244165323531003509e+00,4.532298742686927673e-01,-9.217035637454785046e+00
-6.106495142040078150e+00,-5.119429235221212293e-01,-9.217322932456012197e+00
-5.798895265348388506e+00,-1.409560532422835299e+00,-9.218025822732450081e+00
-5.492373320353945765e+00,-2.290730994877602456e+00,-9.217270262557262228e+00
-5.084593735327073816e+00,-3.165101668178343708e+00,-9.216158237398500930e+00
-4.526603725744284823e+00,-3.985756198226734881e+00,-9.216755449200213945e+00
-3.906255760883627026e+00,-4.746653857257378206e+00,-9.216985474510433818e+00
-3.137431255981019795e+00,-5.376318028759450307e+00,-9.216418064610120808e+00
-2.236598616979189824e+00,-5.832301998894512174e+00,-9.216465187670662473e+00
-1.246219255455833119e+00,-6.115983021893317328e+00,-9.216931403404251100e+00
-2.329303445739665246e-01,-6.245918032705098710e+00,-9.216139692182832022e+00
7.848200022506499618e-01,-6.203693479068508765e+00,-9.216283850622478013e+00
1.798731312157959117e+00,-6.038896074492610566e+00,-9.217125323762772382e+00
2.798276611080517284e+00,-5.731478919049873610e+00,-9.217794076431763628e+00
3.771164479815497739e+00,-5.298688544448658000e+00,-9.217486624609398049e+00
4.634729006530426965e+00,-4.670186025615468139e+00,-9.216773778776936155e+00
5.438612061430005085e+00,-3.904598548217051324e+00,-9.216679439436317622e+00
6.117102877609529976e+00,-2.991257900334821862e+00,-9.216817369118249559e+00
6.504562411562162083e+00,-1.957361590204738988e+00,-9.217037495276322545e+00
6.728357434591959674e+00,-8.623671588239776309e-01,-9.217272130497480731e+00
6.855721652302182001e+00,2.683958368201919686e-01,-9.217156689927719526e+00
6.808983907619754916e+00,1.382209344636729398e+00,-9.216084494807709859e+00
6.544212482387264274e+00,2.460993716008800902e+00,-9.215955909889476771e+00
6.067297247147524608e+00,3.482005938558190294e+00,-9.216820764863944859e+00
5.455382547821012729e+00,4.429557804000633148e+00,-9.217031054663628709e+00
4.052850424580309863e+00,4.593315668609710301e+00,-1.127533495459659463e+01
3.353805334887017153e+00,5.216749495354452648e+00,-1.127602886224685896e+01
2.549667819075453590e+00,5.690760046946306439e+00,-1.127631588097813342e+01
1.700803911290815762e+00,6.087902911567384834e+00,-1.127619151754505822e+01
8.174433564653261763e-01,6.353653401866874439e+00,-1.127670022840286990e+01
-1.099940857640710201e-01,6.454343672521646980e+00,-1.127625406545986309e+01
-1.047856989679750273e+00,6.397898060923957964e+00,-1.127683962502687187e+01
-1.949086143912208025e+00,6.199449062056717530e+00,-1.127698891791192715e+01
-2.816739706953036215e+00,5.838280271269717048e+00,-1.127607639413379381e+01
-3.603471613066798973e+00,5.315368204283045017e+00,-1.127636806125976143e+01
-4.295513828871832196e+00,4.684033732576651232e+00,-1.127611408859001330e+01
-4.828784083834593233e+00,3.919236637019129166e+00,-1.127557067785147282e+01
-5.191583162696121967e+00,3.067554494242570762e+00,-1.127647462180562243e+01
-5.375771271934106643e+00,2.177693851521665280e+00,-1.127693237715531538e+01
-5.381679506042422290e+00,1.287711734320283963e+00,-1.127634304394300102e+01
-5.286842305828228561e+00,4.389245728234726363e-01,-1.127516637177721570e+01
-5.294974670830193020e+00,-3.830323783351009537e-01,-1.127599117279931740e+01
-4.975416656600346599e+00,-1.134216136503931160e+00,-1.127649976502055296e+01
-4.610128616661252288e+00,-1.820336346105660086e+00,-1.127573117566048744e+01
-4.246611351216639463e+00,-2.535544168609361826e+00,-1.127598025045750596e+01
-3.770121632324231697e+00,-3.192610225257335621e+00,-1.127620455503125818e+01
-3.284336793689905498e+00,-3.824790036696054774e+00,-1.127648651335553609e+01
-2.667078287612641319e+00,-4.390388477987658078e+00,-1.127682346240464994e+01
-1.945479289895241326e+00,-4.804390655112178443e+00,-1.127667017940278527e+01
-1.132541186582556758e+00,-5.071710617852843050e+00,-1.127653916907111231e+01
-2.790288833585655159e-01,-5.170308847051735768e+00,-1.127568158303446211e+01
5.911332916078184674e-01,-5.147202647558229316e+00,-1.127697487400364551e+01
1.466872637791491574e+00,-5.032010544023210130e+00,-1.127710011686265013e+01
2.312134531310362728e+00,-4.766911674847297498e+00,-1.127623567227595203e+01
3.178167348798958347e+00,-4.442069653443445176e+00,-1.127609145582650996e+01
3.950041513109995073e+00,-3.919567882821972216e+00,-1.127645096734223529e+01
4.513951508976954408e+00,-3.212931305303769580e+00,-1.127637512137584253e+01
5.047054961835337750e+00,-2.449754852060919141e+00,-1.127680621611908585e+01
5.439734548658052837e+00,-1.596595218543064076e+00,-1.127695395102708353e+01
5.594087315917554371e+00,-6.668432921192721796e-01,-1.127665731975283947e+01
5.665553748401359613e+00,2.932533280506294804e-01,-1.127638876519875843e+01
5.649198224499730969e+00,1.213770262629197294e+00,-1.127654590685988367e+01
5.468400862762277548e+00,2.129690710149782618e+00,-1.127697475967566021e+01
5.120420079880885211e+00,3.008544541624277091e+00,-1.127662767228384055e+01
4.651064100427681147e+00,3.833536990644538456e+00,-1.127581302984014222e+01
3.267101100830987814e+00,3.805168313525832957e+00,-1.333540633486496496e+01
2.708133335132046238e+00,4.316961580404311327e+00,-1.333617885681832327e+01
2.067903655875556801e+00,4.716834796769571625e+00,-1.333500575047906267e+01
1.390488755595786774e+00,5.011104686475068348e+00,-1.333494793921966171e+01
6.819247635828675769e-01,5.215266507010458241e+00,-1.333596147233095408e+01
-7.345108260083445251e-02,5.293209432437619100e+00,-1.333520800804647877e+01
-8.406778315803430379e-01,5.258589643133060321e+00,-1.333663200096879820e+01
-1.568831849407178014e+00,5.120436673429425767e+00,-1.333662347419340932e+01
-2.274450242357549890e+00,4.856690868194442956e+00,-1.333587101455578328e+01
-2.922315807164307166e+00,4.419306524596708918e+00,-1.333657437159127213e+01
-3.468880626493886066e+00,3.885059367876806391e+00,-1.333675859812777631e+01
-3.947653478675363203e+00,3.299522767547260038e+00,-1.333639796927728760e+01
-4.251914094680557810e+00,2.604806235340636711e+00,-1.333576089103319617e+01
