8.100684587812283510e+00,-1.636008498117827337e+00,-3.093594115053954319e+00
8.309630613681651568e+00,-5.987665178416019529e-01,-3.094319264920497137e+00
8.446296703652617310e+00,4.765576163543574495e-01,-3.094316637272135573e+00
8.443411746426328079e+00,1.599354254297230771e+00,-3.093628363043681606e+00
8.295886731150011073e+00,2.781791189170927048e+00,-3.093661501375750689e+00
7.995815693004360902e+00,4.024873490150842059e+00,-3.094256552289335271e+00
7.164912290376106441e+00,5.101023869680780365e+00,-5.189287244637807106e+00
6.456603188536438331e+00,6.214462530750502367e+00,-5.190734272595664223e+00
5.525082702060363005e+00,7.243488586865380441e+00,-5.190984055537868791e+00
4.384419291447501976e+00,8.155608102103338197e+00,-5.190169032793595427e+00
3.083995570328071700e+00,8.904733953059098539e+00,-5.190412488811642078e+00
1.638211946189938040e+00,9.458298745932021134e+00,-5.191294288578542471e+00
3.562074382511060122e-02,9.800181769177898516e+00,-5.191116262506758616e+00
-1.681859102718152865e+00,9.878793051857140739e+00,-5.192164244124321648e+00
-3.426515423718135889e+00,9.648239167296333463e+00,-5.192082298787324746e+00
-5.177317917760437815e+00,9.109226628653871671e+00,-5.191397636723514175e+00
-6.843921530508366935e+00,8.243379960680005780e+00,-5.191940330298875139e+00
-8.331356023539132849e+00,7.026773959971457373e+00,-5.191216232192398472e+00
-9.575579316162674104e+00,5.521008435103873069e+00,-5.190643337421566805e+00
-1.049026281400476890e+01,3.789988659414820216e+00,-5.190713051600392980e+00
-1.102313789433441293e+01,1.889760030514618050e+00,-5.191082784559225338e+00
-1.115925851545381065e+01,-6.559374880526547269e-02,-5.192013947297700938e+00
-1.090234671259194243e+01,-2.006260991113595793e+00,-5.191585965349562848e+00
-1.032138500743373832e+01,-3.835164645314943499e+00,-5.191545156471543798e+00
-9.437669120607166562e+00,-5.530575240183513763e+00,-5.191478506273972116e+00
-8.298941859853000480e+00,-7.002655138017457759e+00,-5.191028804148536402e+00
-6.968822439485672149e+00,-8.269913723182201082e+00,-5.191301836985410922e+00
-5.442656598565780435e+00,-9.218277481095503489e+00,-5.191259914765446126e+00
-3.788295396849790997e+00,-9.815896383160760408e+00,-5.190621472462095376e+00
-2.104598646964371156e+00,-1.007661130176995634e+01,-5.190134077424705339e+00
-4.599500390083752777e-01,-1.000712090354953254e+01,-5.190903335687685249e+00
1.113469292894949225e+00,-9.601138137825344643e+00,-5.191203199142977454e+00
2.479877864792517705e+00,-8.938775478355729831e+00,-5.191280998363561494e+00
3.717130632396036027e+00,-8.183995309326670409e+00,-5.192503590090216115e+00
4.789282332166685308e+00,-7.322160336856295082e+00,-5.192368213073677019e+00
5.669249751497728695e+00,-6.333745211584067114e+00,-5.190600923115145982e+00
6.367871026858262340e+00,-5.363102519745805985e+00,-5.190521516698766824e+00
6.922525795582876285e+00,-4.421383140023804614e+00,-5.190960629634837176e+00
7.327707541751383502e+00,-3.449189733855100748e+00,-5.190521415387620685e+00
7.601658435764431232e+00,-2.471712328452834839e+00,-5.190961028430669977e+00
7.813491264484129672e+00,-1.478384307473084913e+00,-5.191110689518117383e+00
7.988818351345679858e+00,-4.793107626359351392e-01,-5.190389796023441527e+00
8.079222230749044442e+00,5.460002316923473487e-01,-5.191683794250057105e+00
8.075498970458044212e+00,1.609828090415047486e+00,-5.190798007568581340e+00
7.953009077883389288e+00,2.747186587868700514e+00,-5.189217581733265305e+00
7.642379660117219586e+00,3.932134291212490584e+00,-5.188685357525857356e+00
6.764209876118974840e+00,4.910210236455519350e+00,-7.288681983706611689e+00
6.055078615774981188e+00,5.943570929706412542e+00,-7.288699494514649047e+00
5.146131152501610018e+00,6.882357401066022007e+00,-7.288057457169719200e+00
4.069503787820905494e+00,7.705876835993638707e+00,-7.288013284067853093e+00
2.849064515605697068e+00,8.393348410871952936e+00,-7.288153329575740358e+00
1.493288985684988912e+00,8.854345870662942986e+00,-7.287722038886168541e+00
1.703725915493414789e-02,9.105277942044546435e+00,-7.287306496954562007e+00
-1.531201957652323697e+00,9.130671632919655778e+00,-7.287952282597165876e+00
-3.109533309546677504e+00,8.862905864616470453e+00,-7.288397199766890822e+00
-4.664028910906960590e+00,8.319103260461977456e+00,-7.288711326318953354e+00
-6.181737717789120623e+00,7.547588346607675192e+00,-7.289183947291958177e+00
-7.555021814219496257e+00,6.448934599358862485e+00,-7.288219415096913067e+00
-8.703509751725867716e+00,5.088616713304030093e+00,-7.288112366165107048e+00
-9.550408127346408094e+00,3.492331153947040079e+00,-7.289335600327021325e+00
-1.004244902344094825e+01,1.769313752837837983e+00,-7.288207908536944224e+00
-1.019011428290260923e+01,-3.609093097402987782e-02,-7.287166047022616944e+00
-9.962912418264426861e+00,-1.820529980056679431e+00,-7.288591025635748011e+00
-9.445352385515770166e+00,-3.507948697803166649e+00,-7.289014624151986865e+00
-8.617179213239470670e+00,-5.067519662870546782e+00,-7.288911653005992974e+00
-7.562624053608848484e+00,-6.429985508703545349e+00,-7.288868179013815229e+00
-6.333788975390758580e+00,-7.595339438310308111e+00,-7.287705450097758053e+00
-4.939005352882557709e+00,-8.473972179258353776e+00,-7.288191100230442032e+00
-3.447419088639883444e+00,-9.049292295489216542e+00,-7.289321058303791290e+00
-1.909072624536266582e+00,-9.333778135380212504e+00,-7.289250139220480484e+00
-3.939490872136885979e-01,-9.311201057964439087e+00,-7.289073613956232656e+00
1.030462483411662911e+00,-9.004081583614473416e+00,-7.288663746962285472e+00
2.342768240370620703e+00,-8.417804482596986659e+00,-7.289077473638553073e+00
3.503443491630644946e+00,-7.711844121313720990e+00,-7.289300651047175172e+00
4.544569068714123361e+00,-6.918913867559740360e+00,-7.289372948780691530e+00
5.391271876740033164e+00,-6.027558061190465111e+00,-7.288865700757226840e+00
6.104498257253251126e+00,-5.130513538999641021e+00,-7.287476438177345806e+00
6.663887312246029815e+00,-4.211733374896427406e+00,-7.288134806457564174e+00
7.052262081270520788e+00,-3.272200472129154658e+00,-7.288620757289990593e+00
7.316304576343987343e+00,-2.285710910788214534e+00,-7.288424935429329565e+00
7.518678857500770363e+00,-1.316230246650765823e+00,-7.288406553686421319e+00
7.657470084606009308e+00,-3.645432667146325523e-01,-7.289554168065425444e+00
7.705155275300253237e+00,6.189036785565134036e-01,-7.289041139750668030e+00
7.694538106595012472e+00,1.627383904199556142e+00,-7.288065200967127844e+00
7.564647942043939643e+00,2.705606946992395123e+00,-7.288161385042731588e+00
7.274831856241346983e+00,3.801244615599120635e+00,-7.288467381892330010e+00
6.297818659194991397e+00,4.727193511959048244e+00,-9.386227429526492472e+00
5.616773540479415239e+00,5.655154241464876108e+00,-9.386971383070294550e+00
4.744719983051473022e+00,6.490860529278482005e+00,-9.386778994186030900e+00
3.726641837734984364e+00,7.199874373882765077e+00,-9.386340958890855291e+00
2.604065712033966307e+00,7.790042191444852548e+00,-9.385765286915903616e+00
1.363460511746826587e+00,8.212836884510238633e+00,-9.385886006078861143e+00
2.765778795521200983e-02,8.376907729014526183e+00,-9.385545788209087803e+00
-1.365207045337382796e+00,8.350705603309490854e+00,-9.384939036889788255e+00
-2.778073244997282032e+00,8.056973883683234305e+00,-9.385899563544372270e+00
-4.131851430788050727e+00,7.514202349820498839e+00,-9.385909227508548724e+00
-5.490338080080459093e+00,6.806075586909323683e+00,-9.384885826923591523e+00
-6.718368514036050954e+00,5.827691235194081720e+00,-9.385742548174519584e+00
-7.748915983714836919e+00,4.606765018623450558e+00,-9.385593041268050385e+00
-8.504224711795012936e+00,3.173099109759568215e+00,-9.386396519138569872e+00
-8.953353781224638652e+00,1.624322748959629914e+00,-9.387382861263438016e+00
-9.097732714787094110e+00,-6.538043231815171552e-04,-9.386459314221575312e+00
-8.913852071536272348e+00,-1.597654247260074989e+00,-9.385824784364688256e+00
-8.439088888494854501e+00,-3.147443103406835085e+00,-9.386164739587764316e+00
-7.691467531824550008e+00,-4.549397627426094992e+00,-9.386696954067279108e+00
-6.748210697602242902e+00,-5.786565612502560185e+00,-9.385713683427637122e+00
-5.644789687991560889e+00,-6.841533696974797962e+00,-9.386072819714057047e+00
-4.390624018453232580e+00,-7.645375968262625221e+00,-9.386493587339197475e+00
-3.064614470952333303e+00,-8.201751793455395401e+00,-9.385291644245405962e+00
-1.679387598575421636e+00,-8.489441125596711046e+00,-9.385354360342242686e+00
-3.028414358865700873e-01,-8.504007801942698563e+00,-9.385308142488016259e+00
1.012168914179862655e+00,-8.251365631476701878e+00,-9.385226891153161333e+00
2.215073973873737501e+00,-7.755087687080431280e+00,-9.386520978112706359e+00
3.285076151678873124e+00,-7.121112631841301166e+00,-9.387132064124077857e+00
4.258390459618170532e+00,-6.434863376313089134e+00,-9.386525675182491923e+00
5.106848830411909290e+00,-5.692576324392939924e+00,-9.386138555769033331e+00
5.840044376498467749e+00,-4.895052949341861748e+00,-9.386541074437177556e+00
6.401664018160118097e+00,-4.029612896599251037e+00,-9.386491724824232108e+00
6.777134771515807898e+00,-3.095099878677221916e+00,-9.385487579286177606e+00
7.042391385044783902e+00,-2.130076444005324809e+00,-9.386192548619655796e+00
7.231091583006773682e+00,-1.185430444699342223e+00,-9.386824095358786479e+00
7.347195844737863801e+00,-2.739710592568412872e-01,-9.385938932345897712e+00
7.364137092578123323e+00,6.887625711440291676e-01,-9.385312322385065187e+00
7.315728285067273795e+00,1.659420353065537590e+00,-9.385718999140463481e+00
7.143775032607323716e+00,2.682260677545540872e+00,-9.386070062334782804e+00
6.814449908427394398e+00,3.708083102759887062e+00,-9.385913813427100294e+00
5.846857768320047555e+00,4.489382699306131208e+00,-1.148312625979030344e+01
5.166551247951664649e+00,5.315353044676845329e+00,-1.148328634677564430e+01
4.323957333356296395e+00,6.029365850583019437e+00,-1.148399610132871906e+01
3.387342476428136351e+00,6.602109015747200438e+00,-1.148421203866998752e+01
2.347651168280860290e+00,7.042184126650873566e+00,-1.148335429636611948e+01
1.243501837378609531e+00,7.433072467248893922e+00,-1.148386632933514484e+01
5.478563356517418548e-02,7.530503053188775553e+00,-1.148358101320274649e+01
-1.173493533289253099e+00,7.471398939274783935e+00,-1.148413962626055174e+01
-2.412735716346618986e+00,7.203501845415564375e+00,-1.148386420818700948e+01
-3.586954513539359013e+00,6.674305943902697713e+00,-1.148271597718909476e+01
-4.729188053037697514e+00,6.014419995222852755e+00,-1.148392794213224910e+01
-5.801266995541707772e+00,5.160442995393163201e+00,-1.148324428058724855e+01
-6.683096154928863442e+00,4.097721143227410323e+00,-1.148363556474389213e+01
-7.352527095074028018e+00,2.841593617337572653e+00,-1.148434147244541315e+01
-7.763590225661036293e+00,1.461802490972966329e+00,-1.148381657058049932e+01
-7.878484396129254108e+00,5.728061176811033439e-02,-1.148353442697296067e+01
-7.719476591270909793e+00,-1.365464945304220024e+00,-1.148302061746855607e+01
-7.312849692692489967e+00,-2.725370559638125911e+00,-1.148296687069874800e+01
-6.669386333055071781e+00,-3.989375063805581156e+00,-1.148294343197357747e+01
-5.859269126520272764e+00,-5.074305119961925570e+00,-1.148311500330986767e+01
-4.887481917786546504e+00,-6.012028992755746870e+00,-1.148334555683315017e+01
-3.803575203677197702e+00,-6.720747459375019162e+00,-1.148433826117821610e+01
-2.644295380260019535e+00,-7.255042853367809741e+00,-1.148375793973299253e+01
-1.426070939312830577e+00,-7.546281511672664699e+00,-1.148335471116030604e+01
-1.904225434094739544e-01,-7.577179364858342758e+00,-1.148327243884881099e+01
9.894850976680569232e-01,-7.377521609559241966e+00,-1.148356694626833452e+01
2.091193955013270767e+00,-7.009523848782856170e+00,-1.148349677406517344e+01
3.062394736334054457e+00,-6.487989063525739120e+00,-1.148493440900471363e+01
3.967542459478312189e+00,-5.911260767516780312e+00,-1.148422258252283079e+01
4.786328331203308473e+00,-5.285042081884884446e+00,-1.148266040055974102e+01
5.498957999928435925e+00,-4.592984690221975974e+00,-1.148367738507548630e+01
6.082201745437435747e+00,-3.788321009739642697e+00,-1.148300436680102266e+01
6.469682262957505259e+00,-2.895690576785274750e+00,-1.148320370049813555e+01
6.723076067658237953e+00,-1.961801953380821084e+00,-1.148407957727915196e+01
6.923784430066254991e+00,-1.046311858281980145e+00,-1.148409770534703078e+01
7.035053993559884589e+00,-1.838685636928472089e-01,-1.148342909865944428e+01
7.020696739107812334e+00,7.390084381290232818e-01,-1.148383467568028671e+01
6.908535791371393842e+00,1.688948999757547753e+00,-1.148376870486321089e+01
6.696120718799273064e+00,2.627878539040990002e+00,-1.148295116282629813e+01
6.349776016994343131e+00,3.575883133570514794e+00,-1.148280722737282566e+01
5.358565244025931484e+00,4.141611904811571598e+00,-1.358112905489175759e+01
4.698936353198076787e+00,4.862470131872824730e+00,-1.358143599121699552e+01
3.921847406907089884e+00,5.483810364079502619e+00,-1.358014765175348693e+01
3.056189668805258997e+00,5.939602908258811098e+00,-1.358012767915215235e+01
2.116033545879043132e+00,6.220907546814801847e+00,-1.358071969844016458e+01
1.150202985958641122e+00,6.487554210666814036e+00,-1.358092628160456350e+01
1.094517202181656268e-01,6.589342204741454267e+00,-1.358047986169921195e+01
-9.325109464548797522e-01,6.495169422846968743e+00,-1.358037449164987542e+01
-1.994321908737676896e+00,6.248060742022018665e+00,-1.358068023898696630e+01
-2.983996496813166921e+00,5.776127313857820411e+00,-1.358034815206675461e+01
-3.895219747576543767e+00,5.163566339226474788e+00,-1.358021281353967602e+01
-4.794208268446639387e+00,4.449466692299828274e+00,-1.358146020024395284e+01
-5.551578100154465290e+00,3.542130828802434017e+00,-1.358081355319581718e+01
-6.131415845048706181e+00,2.480448190580652579e+00,-1.358052308485988036e+01
-6.486276944302246328e+00,1.303106150116129625e+00,-1.358205119758657453e+01
-6.551383421008289965e+00,9.796501731494217102e-02,-1.358158853180159120e+01
-6.463917086742999807e+00,-1.109106348663404962e+00,-1.358035804524752521e+01
-6.116807599551378871e+00,-2.284172211326190194e+00,-1.358145094741455594e+01
-5.588052088891814151e+00,-3.371438542932376770e+00,-1.358101511043475362e+01
-4.920144915296813082e+00,-4.307431859013219011e+00,-1.358017964659627985e+01
-4.091029721223963023e+00,-5.083048298722632197e+00,-1.358157080855980148e+01
-3.164092576430847181e+00,-5.723750956595875294e+00,-1.358187740503836949e+01
-2.188543465988357362e+00,-6.203811971463801811e+00,-1.358110983612227685e+01
-1.159720266058970273e+00,-6.479590540860506565e+00,-1.358155485148875918e+01
-9.232917235659088284e-02,-6.517202748723839534e+00,-1.358152199162796059e+01
9.398480451187110063e-01,-6.399463103649841500e+00,-1.358077223557679325e+01
1.915996809205683160e+00,-6.191695350160665967e+00,-1.357998478867015635e+01
2.828046495677654981e+00,-5.794913268018897945e+00,-1.357999631156991960e+01
3.661354690344839291e+00,-5.333726415164125711e+00,-1.358167319917806992e+01
4.453969635966214646e+00,-4.840405011152899561e+00,-1.358210775230771006e+01
5.115024366606477635e+00,-4.206596124202826026e+00,-1.358063326933780246e+01
5.638908786309156262e+00,-3.445085153193617078e+00,-1.358090841348940181e+01
6.061137297536912882e+00,-2.636943110244387434e+00,-1.358147975685547237e+01
6.345403504407276962e+00,-1.784954192404017315e+00,-1.358193279472585502e+01
6.517125966906094803e+00,-9.128240327748692318e-01,-1.358193569928517519e+01
6.628694528529702978e+00,-9.756755317271861849e-02,-1.358051948572505729e+01
6.593720227197160888e+00,7.587992854923065744e-01,-1.358131582741180488e+01
6.459927727778168816e+00,1.644808162923521611e+00,-1.358125957707141751e+01
6.221394587524833319e+00,2.506559206215087876e+00,-1.357999687516804244e+01
5.855996120835111007e+00,3.350778618414658183e+00,-1.358005221711847454e+01
4.826456045254253091e+00,3.734159517707765108e+00,-1.567858712893113093e+01
4.209133540146853925e+00,4.348509703805262916e+00,-1.567768640130538671e+01
3.523250836782223949e+00,4.871065988395529622e+00,-1.567700336214689827e+01
2.739349875630811226e+00,5.222681158416627945e+00,-1.567847144484066568e+01
1.907551482347610960e+00,5.390196967502628667e+00,-1.567834230477345692e+01
1.070890093980324531e+00,5.542680640818500315e+00,-1.567802974859810483e+01
2.024832886434168033e-01,5.608994462683482674e+00,-1.567834521951672500e+01
-6.604291354944396009e-01,5.467035210891436847e+00,-1.567866513199303924e+01
-1.530743435815101083e+00,5.243502038915873520e+00,-1.567874895611335617e+01
-2.349598702014754625e+00,4.851231396608705282e+00,-1.567825496075826130e+01
-3.051001144819941668e+00,4.314185164877388345e+00,-1.567838566129809585e+01
-3.769659652139169648e+00,3.719545708228963576e+00,-1.567781359878037861e+01
-4.393296149820914209e+00,2.988269626456599770e+00,-1.567780763173666436e+01
-4.877956577924911663e+00,2.105960152360667692e+00,-1.567790490985269436e+01
-5.177765139986693299e+00,1.132612994957958419e+00,-1.567770991324702656e+01
-5.207551399512215795e+00,1.468650528440190728e-01,-1.567817897990394549e+01
-5.174692167433331491e+00,-8.608466609425975413e-01,-1.567869953303425667e+01
-4.907829240356388567e+00,-1.836808029111834051e+00,-1.567954353956499070e+01
-4.497135411213413647e+00,-2.750659587477299883e+00,-1.567912904156815834e+01
-3.954719792240322107e+00,-3.542228720477745174e+00,-1.567784785716969509e+01
-3.272968368342453527e+00,-4.190244092661024489e+00,-1.567799621866361015e+01
-2.509495497229535133e+00,-4.733068973219364040e+00,-1.567865502667653210e+01
-1.707467322563828382e+00,-5.152819979105569992e+00,-1.567855560107494561e+01
-8.431932951934326681e-01,-5.406231926034022806e+00,-1.567932500239524352e+01
3.133741410240875602e-02,-5.464387725088126757e+00,-1.567881521934853239e+01
9.019104144259185718e-01,-5.408630883916713650e+00,-1.567883167248700893e+01
1.768035540572443942e+00,-5.316898013968158310e+00,-1.567848839594285870e+01
2.589950277867909989e+00,-5.057882139247434239e+00,-1.567750937373235764e+01
3.349724956031781886e+00,-4.688740216263132865e+00,-1.567844473685607376e+01
4.068807341217176798e+00,-4.297093210543124542e+00,-1.567826192845486410e+01
4.683773837138659246e+00,-3.734761102980084235e+00,-1.567717207372470689e+01
5.149761602305592767e+00,-3.031818010029111221e+00,-1.567840720647926744e+01
5.538148581350722743e+00,-2.317611284363384705e+00,-1.567786257280103790e+01
5.810084907509409646e+00,-1.562753932394765899e+00,-1.567738408590790833e+01
5.968414076318387274e+00,-7.790138989152561866e-01,-1.567913036700180740e+01
6.097512483520180382e+00,-3.471797703765788778e-02,-1.567971323864062683e+01
6.055359686788691853e+00,7.523831761994772549e-01,-1.567870847253886524e+01
5.912135648885777250e+00,1.563151307905053189e+00,-1.567739944466077873e+01
5.672418112149149039e+00,2.339890512775808062e+00,-1.567747907928051809e+01
5.306479566918469004e+00,3.057634290101810315e+00,-1.567815966361487945e+01
4.198656233669908033e+00,3.196190675277632565e+00,-1.777560815877220790e+01
3.660033504434812457e+00,3.691224745541630270e+00,-1.777575980606372141e+01
3.074044960474516586e+00,4.117583317346886318e+00,-1.777513417855009692e+01
2.419101100410783189e+00,4.364003589208059530e+00,-1.777552889619615684e+01
1.714879614139466657e+00,4.460108513604273739e+00,-1.777530651812800855e+01
1.027317258239367259e+00,4.544697770294161110e+00,-1.777537646533342297e+01
3.455465047024395275e-01,4.519442024013293313e+00,-1.777603507149619233e+01
-3.357668442256980246e-01,4.362324067574282260e+00,-1.777579432002113080e+01
-1.022719901456118130e+00,4.176061461496589189e+00,-1.777582244951334189e+01
-1.661444084607449190e+00,3.874157318921380710e+00,-1.777624756292019725e+01
-2.169780406313265964e+00,3.428931658480192990e+00,-1.777598834139770645e+01
-2.716110576262958709e+00,2.962046168355099596e+00,-1.777604768081836895e+01
-3.199095498523496950e+00,2.394423065220124158e+00,-1.777602378171577513e+01
-3.574190677282890860e+00,1.711512634422724277e+00,-1.777591120344369457e+01
-3.738954160426388285e+00,9.386308577087425498e-01,-1.777623467139033053e+01
-3.844591329842216965e+00,1.683421872808141817e-01,-1.777620748981901855e+01
-3.816858568443094235e+00,-6.137406040511941274e-01,-1.777616147807845337e+01
-3.641112969867457583e+00,-1.384247073691081908e+00,-1.777620086502942698e+01
-3.339625498914839064e+00,-2.119470591429271522e+00,-1.777614074939734934e+01
-2.926566438624565336e+00,-2.737955644418672563e+00,-1.777517667171761673e+01
-2.400739469984567886e+00,-3.267912850594272722e+00,-1.777526907534956990e+01
-1.795472212265149192e+00,-3.703195142873049406e+00,-1.777571289055211423e+01
-1.165973296423855610e+00,-4.054696040820530811e+00,-1.777594527725153384e+01
-4.932835863276090471e-01,-4.282228133319525121e+00,-1.777552034965178152e+01
2.090611094114955826e-01,-4.351873617871577338e+00,-1.777573923632423814e+01
9.033584712889735080e-01,-4.328201811453308068e+00,-1.777599320594587340e+01
1.626782398807644636e+00,-4.297989940026595512e+00,-1.777558053173909158e+01
2.326941823736346393e+00,-4.161078316758698215e+00,-1.777619014203571979e+01
2.952500191884961822e+00,-3.884972684171013046e+00,-1.777619804109088975e+01
3.571441755345881042e+00,-3.569347167137609134e+00,-1.777595411912963996e+01
4.090997844939971984e+00,-3.096548414027998408e+00,-1.777659617495808320e+01
4.499526607608595796e+00,-2.516290563287091331e+00,-1.777476786184822899e+01
4.860557155543968832e+00,-1.914644290529798232e+00,-1.777477165297255368e+01
5.080056882360853621e+00,-1.273686649615808131e+00,-1.777576674846165972e+01
5.189688350162219521e+00,-6.192053390502830768e-01,-1.777572309245309157e+01
5.312117661313084938e+00,3.269216470603608649e-02,-1.777537548645008414e+01
5.324365679770609816e+00,7.116899549978797923e-01,-1.777649509301505404e+01
5.194291417194473404e+00,1.391293464045746386e+00,-1.777599395483065337e+01
4.964844868935422539e+00,2.047983194330996071e+00,-1.777488043907474591e+01
4.633200846166253939e+00,2.646353794420226890e+00,-1.777493953560180628e+01
3.346964012823359980e+00,2.397565126660123003e+00,-1.987295174057178571e+01
2.943372331846225265e+00,2.751988023188412846e+00,-1.987338699125079700e+01
2.501271176318072609e+00,3.045476208724701372e+00,-1.987339257044695273e+01
2.007653032893741862e+00,3.193934161356814183e+00,-1.987296761868446282e+01
1.508774603439429818e+00,3.249304540446606993e+00,-1.987361999565145609e+01
1.010327062262177167e+00,3.271524202905943923e+00,-1.987305617232079058e+01
5.371739054641204714e-01,3.176970368748942786e+00,-1.987343850254539035e+01
7.321208629349218455e-02,3.025679986519114184e+00,-1.987381637063077022e+01
-3.870148414929655001e-01,2.886697511685251794e+00,-1.987336611197248004e+01
-8.038069131901466324e-01,2.673648341773434467e+00,-1.987346790500279781e+01
-1.124077549522501274e+00,2.373590694322841088e+00,-1.987268862234892453e+01
-1.481013957092554678e+00,2.067359860668605442e+00,-1.987336581830679805e+01
-1.807078047774403950e+00,1.687308905524384173e+00,-1.987388565700577203e+01
-2.016885848210524301e+00,1.219025601271356951e+00,-1.987314999425479556e+01
-2.159709660969758804e+00,7.034712761993717756e-01,-1.987283402907863916e+01
-2.267091097076021633e+00,1.723645870103407973e-01,-1.987308826242095705e+01
-2.249260315501313112e+00,-3.486914926707010420e-01,-1.987304515042547237e+01
-2.126884979953153731e+00,-8.603148873505159777e-01,-1.987304767324643962e+01
-1.958346967792756077e+00,-1.372533865098394701e+00,-1.987279240129542401e+01
-1.680714122808347977e+00,-1.803214138220658569e+00,-1.987329931805579619e+01
-1.333319327268595922e+00,-2.176002125964799916e+00,-1.987273685607979345e+01
-9.153001674131875376e-01,-2.473063795654808938e+00,-1.987214026647321674e+01
-4.906382374027324911e-01,-2.721152290575918897e+00,-1.987285647554934442e+01
-4.261792972613420716e-02,-2.892497763533643518e+00,-1.987342469509053089e+01
4.485471735543041794e-01,-2.965002489196906676e+00,-1.987328319480666039e+01
9.353846697020443690e-01,-2.978173805243969685e+00,-1.987351971760222469e+01
1.448655055891193255e+00,-2.968564104933604675e+00,-1.987396449805235932e+01
1.952674210840198654e+00,-2.935370056160545804e+00,-1.987341590351786280e+01
2.395513697687059018e+00,-2.744346608433489543e+00,-1.987292400918208202e+01
2.848847476875634666e+00,-2.513092195697982145e+00,-1.987260683332716127e+01
3.231349178034934599e+00,-2.180173193303988288e+00,-1.987304261305572695e+01
3.535608186273896170e+00,-1.763447253902542755e+00,-1.987348574194830064e+01
3.819467804763382990e+00,-1.329485563159100936e+00,-1.987334348465727274e+01
4.007096528385797995e+00,-8.684334871671199885e-01,-1.987310429176440962e+01
4.069337716019912676e+00,-3.957885533364687847e-01,-1.987263092930583142e+01
4.161234547010226770e+00,8.660627352701882886e-02,-1.987283255768769763e+01
4.190332945856455993e+00,6.041435577475305907e-01,-1.987332252157552404e+01
4.093947535529728121e+00,1.105654355256900256e+00,-1.987337795680259234e+01
3.922273569455086317e+00,1.573567781647422947e+00,-1.987333617998113056e+01
3.677191011852070535e+00,2.009258726865899458e+00,-1.987311187085801478e+01
1.076088529261762794e+00,1.545321107915491043e-01,-2.197056445278101577e+01
4.463570010668330035e+00,3.341272647499281323e+00,1.997802112393879881e+01
4.389419127326164904e+00,4.458823794774373184e+00,1.997802108142499478e+01
4.003038070847492413e+00,5.612324272045882800e+00,1.997802112515116946e+01
3.302509616886989186e+00,6.733497584495836463e+00,1.997802110109877205e+01
2.276806161108255289e+00,7.745594671545207532e+00,1.997802111350637944e+01
9.214258257376938266e-01,8.609847438306511336e+00,1.997802114368835191e+01
-7.218118482215345466e-01,9.213304468704581751e+00,1.997802112099111227e+01
-2.528834331456483397e+00,9.438819781609950610e+00,1.997802110954324917e+01
-4.329269947414198683e+00,9.159402324735475887e+00,1.997802113358331155e+01
-5.989150521620929091e+00,8.399986125386334379e+00,1.997802114594361100e+01
-7.405505932411283965e+00,7.261437932799896799e+00,1.997802111443932915e+01
-8.474270890705021486e+00,5.797541519354905581e+00,1.997802112595749691e+01
-9.126577807416079935e+00,4.130768564099356333e+00,1.997802114741030977e+01
-9.408187959665751166e+00,2.387978376412525972e+00,1.997802112851131184e+01
-9.358540543694875424e+00,6.628813313025024856e-01,1.997802109257366965e+01
-9.006165272284230028e+00,-9.874900225386755714e-01,1.997802110751198157e+01
-8.365111325678928011e+00,-2.528633594184398703e+00,1.997802111805305714e+01
-7.428637496595916545e+00,-3.856700949610313067e+00,1.997802109538202231e+01
-6.220430598723373450e+00,-4.890815502429987305e+00,1.997802113075979236e+01
-4.874160419057896654e+00,-5.562451134669039732e+00,1.997802115973851400e+01
-3.478599873221353889e+00,-5.918802672900786987e+00,1.997802111994838725e+01
-2.112614814153407572e+00,-6.007556447371208641e+00,1.997802110606212977e+01
-8.516831244173399540e-01,-5.840208595163591809e+00,1.997802115621960795e+01
2.736843556144534784e-01,-5.473718395131647263e+00,1.997802116177583542e+01
1.222137490838772766e+00,-4.958299039021097698e+00,1.997802116394151994e+01
1.989629944339771139e+00,-4.329393620178201729e+00,1.997802119972441304e+01
2.554710318565754701e+00,-3.608259498696846368e+00,1.997802112553071296e+01
2.928223962209731912e+00,-2.838013976461545962e+00,1.997802106994443250e+01
3.049795792435664676e+00,-2.032013273339106973e+00,1.997802109154492456e+01
2.966620005356892520e+00,-1.289205456270444472e+00,1.997802105585654431e+01
2.744556446115959059e+00,-6.809580601248947929e-01,1.997802101360442961e+01
2.503419825337568128e+00,-2.698635356286853693e-01,1.997802104037527116e+01
2.354036635082692008e+00,-2.884077297532172679e-02,1.997802105688563756e+01
2.347971679649625720e+00,1.046478714128181720e-01,1.997802110304809986e+01
2.492067510074988945e+00,1.938626372313517199e-01,1.997802113319232120e+01
2.758313727827706785e+00,3.205737099399510459e-01,1.997802114637656246e+01
3.103072504105827800e+00,5.545797584524145840e-01,1.997802111320387297e+01
3.512189450760211162e+00,9.333516738982110539e-01,1.997802100121508317e+01
3.936453431525082536e+00,1.531088351652989843e+00,1.997802107289919604e+01
4.876372171382739040e+00,3.109752250647544347e+00,1.809588159162474597e+01
4.825327076052129627e+00,4.150921561941956384e+00,1.809647738456267874e+01
4.522076313565785988e+00,5.230145190655176357e+00,1.809637027854352098e+01
3.955659208234365565e+00,6.241137966293052841e+00,1.809584972924386648e+01
3.155623226091980982e+00,7.172969579646396809e+00,1.809689943205797746e+01
2.122727619351169270e+00,8.036918088675806260e+00,1.809678569910088797e+01
8.270828322653261955e-01,8.607861206342342086e+00,1.809710782493721482e+01
-6.513307751242300991e-01,8.965487887009151891e+00,1.809795591809794857e+01
-2.310613581945105910e+00,9.078650931901023569e+00,1.809703803712913128e+01
-3.945432638769245326e+00,8.762283499901798223e+00,1.809667129543463915e+01
-5.414905048641136531e+00,8.009344038341946970e+00,1.809703409138760577e+01
-6.782940203212141306e+00,6.957674271339369554e+00,1.809643332526552584e+01
-7.860870343137108307e+00,5.577784443635271927e+00,1.809623699065612357e+01
-8.539672241653690321e+00,3.998070961105790744e+00,1.809641875475388417e+01
-8.888238509647564456e+00,2.333213789403082217e+00,1.809674907182659354e+01
-9.027238351291465790e+00,7.011979335015644521e-01,1.809649591537890601e+01
-8.754488422356491384e+00,-9.183017407256681697e-01,1.809569598844371185e+01
-8.214784936832355555e+00,-2.446155440785918067e+00,1.809644041910604173e+01
-7.477150191264879453e+00,-3.818799106769413143e+00,1.809653696641383647e+01
-6.413239517150095992e+00,-4.967193428323434468e+00,1.809637105838991289e+01
-5.144872532744709126e+00,-5.825373099533023513e+00,1.809692490689698019e+01
-3.859540068863775986e+00,-6.473505616720446554e+00,1.809619729824520462e+01
-2.388103254374141393e+00,-6.643535705751955511e+00,1.809541941651831110e+01
-1.036699970679638927e+00,-6.599869285324883705e+00,1.809624696501639818e+01
2.204597130264305260e-01,-6.305949611590365045e+00,1.809669104251177529e+01
1.290786730121853410e+00,-5.815822761815468311e+00,1.809616711478530249e+01
2.198923992450299458e+00,-5.135182468916028142e+00,1.809647748809742041e+01
2.864721862162296073e+00,-4.343201642842292820e+00,1.809699212772019195e+01
3.280711554230864468e+00,-3.470662845701473653e+00,1.809665192164782610e+01
3.490637185370588202e+00,-2.685180701646106005e+00,1.809701774648581818e+01
3.474023285696025365e+00,-1.889880261875528156e+00,1.809680843893138658e+01
3.417347370526510719e+00,-1.314231568319563781e+00,1.809741567477702162e+01
3.328546517665597282e+00,-7.758034963112474536e-01,1.809673393614659176e+01
3.231319675944162029e+00,-3.216617129528076546e-01,1.809588412159137150e+01
3.261602962864253108e+00,-2.855591626949627315e-02,1.809674300178199857e+01
3.396852576884914487e+00,2.188125168936837783e-01,1.809644969387375468e+01
3.627544707499460674e+00,4.915390781021260480e-01,1.809621073804460778e+01
3.810644129056132812e+00,8.445853934294702547e-01,1.809640891063238755e+01
4.335193102853196478e+00,1.372323058946201879e+00,1.809675696451102311e+01
4.713729796637455394e+00,2.169438550395175191e+00,1.809623661629344582e+01
4.883980043004500615e+00,3.362761910333255777e+00,1.621619204976437345e+01
4.771840592361342281e+00,4.437864648558745628e+00,1.621590405036986482e+01
4.376506098400245293e+00,5.464103045819022952e+00,1.621577347203199082e+01
3.740561571655854678e+00,6.384406494950742861e+00,1.621545755553138690e+01
2.890562352543128988e+00,7.194564986958651431e+00,1.621469403666596776e+01
1.831608889667773576e+00,7.881064431171167506e+00,1.621464104112463644e+01
5.820534396729669657e-01,8.305103252477323394e+00,1.621595929165685845e+01
-8.295499594725678216e-01,8.580882849192120077e+00,1.621557723515494587e+01
-2.333112607477827005e+00,8.585377718040801298e+00,1.621417232110728435e+01
-3.826491353428250530e+00,8.236488580398084736e+00,1.621426233130100059e+01
-5.229677647314609601e+00,7.535037244592569294e+00,1.621477477906881504e+01
-6.491500402961158933e+00,6.546294048509121666e+00,1.621501609080901929e+01
-7.507968314934869269e+00,5.278687887202115014e+00,1.621502531630840593e+01
-8.235708325344248237e+00,3.798413208279991515e+00,1.621488204857611493e+01
-8.738477232950661033e+00,2.235823851436999909e+00,1.621562711954570801e+01
-8.911383618494959080e+00,6.265137121208326221e-01,1.621532377844466666e+01
-8.692784746344376146e+00,-9.725630681619613638e-01,1.621500728151540827e+01
-8.281964360216290899e+00,-2.481140437637661122e+00,1.621519681245768041e+01
-7.674012307041108372e+00,-3.889351647484694752e+00,1.621507102361480435e+01
-6.682877322730898406e+00,-5.064678660710768554e+00,1.621527510825065832e+01
-5.485486833353173886e+00,-6.038011230069295188e+00,1.621522608790420961e+01
-4.267438586368808018e+00,-6.844999802392212729e+00,1.621530511671227615e+01
-2.694021022327897974e+00,-7.032860721928811287e+00,1.621540154854491789e+01
-1.254434458693617138e+00,-6.958566864647456995e+00,1.621433588267047909e+01
9.456910297504261820e-02,-6.529675862824076304e+00,1.621425273743279050e+01
1.256914794633770871e+00,-5.930654992665523650e+00,1.621635876346038785e+01
2.150437562379967638e+00,-5.181644315302259329e+00,1.621586367773743476e+01
2.796850915509281332e+00,-4.342271884176096108e+00,1.621523711337115259e+01
3.180100965629820031e+00,-3.429059700530273869e+00,1.621567246846313637e+01
3.354263813518990833e+00,-2.654178286077408799e+00,1.621508269667148383e+01
3.374717182797601467e+00,-1.989971096909470827e+00,1.621412809791486609e+01
3.389142057824287235e+00,-1.463202449275612604e+00,1.621581740262073623e+01
3.388754136195862632e+00,-1.036457260988718154e+00,1.621535182545869347e+01
3.427114283408609907e+00,-5.685744064020585853e-01,1.621432457012047479e+01
3.517121439071511979e+00,-1.848242128301106346e-01,1.621447927989412818e+01
3.701014810676710898e+00,1.349017766798165097e-01,1.621560635600190281e+01
3.957703550936170434e+00,4.874148271647664732e-01,1.621544284852235052e+01
4.266084497386954055e+00,9.458513064285816174e-01,1.621473348360024147e+01
4.525106892541376880e+00,1.548455509220364901e+00,1.621563285382056918e+01
4.775811785013006627e+00,2.397428335447446379e+00,1.621573797318850296e+01
4.453228875080978533e+00,3.690654114387959872e+00,1.433280960052136521e+01
4.281117838150649391e+00,4.655287349858573620e+00,1.433264041674716793e+01
3.864740771716399959e+00,5.571360570601975759e+00,1.433327699495348817e+01
3.228642512195861514e+00,6.369884380705227223e+00,1.433382004614239946e+01
2.418881228171109843e+00,7.097392870654513075e+00,1.433369922852263834e+01
1.436954643033557355e+00,7.726844794174975384e+00,1.433397904540516343e+01
2.530302182313073356e-01,8.095048089509827349e+00,1.433353137568812663e+01
-1.036444631307410713e+00,8.302874815718244150e+00,1.433358852313576115e+01
-2.376412356623471389e+00,8.238759168280878953e+00,1.433312243215522841e+01
-3.737988034586495090e+00,7.918833860301126570e+00,1.433328437386265897e+01
-5.042414531736980621e+00,7.244310364044823203e+00,1.433406094042285339e+01
-6.202287180160842794e+00,6.326292438967997533e+00,1.433337561357563672e+01
-7.177222176530955622e+00,5.176995129617527169e+00,1.433372172470585681e+01
-7.962034640880350622e+00,3.875716081937434332e+00,1.433330550071200804e+01
-8.451590147626435012e+00,2.387337503434777020e+00,1.433363182071402875e+01
-8.681958917032629230e+00,8.517375372210852502e-01,1.433412844320890933e+01
-8.635398734533699994e+00,-7.092740361070224431e-01,1.433336545754816882e+01
-8.310936420412122771e+00,-2.209865439451577096e+00,1.433343143582363055e+01
-7.770795581358253656e+00,-3.635298995278664513e+00,1.433342552351715327e+01
-6.844815282616864671e+00,-4.857900208502512029e+00,1.433300814114409150e+01
-5.663426834591468229e+00,-5.856012299499708362e+00,1.433361950585818967e+01
-4.381800058585928248e+00,-6.620142399000209288e+00,1.433315360932358651e+01
-2.933012773983993515e+00,-6.951044625468171034e+00,1.433312649988826415e+01
-1.529934486749620959e+00,-6.934498823742972107e+00,1.433338682513252138e+01
-1.856406015805367460e-01,-6.585511999333658828e+00,1.433323328812140574e+01
1.016198601912717381e+00,-6.030774622440464583e+00,1.433340396432924990e+01
1.949625908345606451e+00,-5.296159300826440486e+00,1.433305125315766304e+01
2.630357759749152091e+00,-4.503129728561070522e+00,1.433310969299153648e+01
3.092612662142720570e+00,-3.671371950707547516e+00,1.433339259495393847e+01
3.323480615689738293e+00,-2.894996563830156244e+00,1.433338839195052294e+01
3.466715234934455658e+00,-2.178518193771125766e+00,1.433337371617652423e+01
3.543478947694471248e+00,-1.611070334424853367e+00,1.433371771985617649e+01
3.620104475064922056e+00,-1.101862251709751384e+00,1.433336250785984056e+01
3.708542712967200838e+00,-5.855723486014190460e-01,1.433327992653534189e+01
3.836817126557862778e+00,-1.124293599442443004e-01,1.433408860254090555e+01
3.952749414690400531e+00,3.253262173205418994e-01,1.433367150104772314e+01
4.159004497729823946e+00,7.578850003343858832e-01,1.433369252558542861e+01
4.320471526875525825e+00,1.349173894424249287e+00,1.433380809278389556e+01
4.409805148515896001e+00,2.016226608791321429e+00,1.433406348287456389e+01
4.474046609038254019e+00,2.803273673411525113e+00,1.433353821782976745e+01
4.663424519452545880e+00,3.541371525929290165e+00,1.245162175896136247e+01
4.420559315287471591e+00,4.469974402678681180e+00,1.245169712666774764e+01
3.978175855924438231e+00,5.362469907699881411e+00,1.245224343509304177e+01
3.347752274991497856e+00,6.190947750990368981e+00,1.245220482555944130e+01
2.529301183478604997e+00,6.960982301197680577e+00,1.245131174554987297e+01
1.538719304567606638e+00,7.597085274325989346e+00,1.245134646408830292e+01
3.292148561288782416e-01,8.034795278012961006e+00,1.245225651164971659e+01
-9.866082572362104841e-01,8.166196998711534150e+00,1.245230776758529245e+01
-2.312140649180188134e+00,8.056583181512820602e+00,1.245202485869243958e+01
-3.679729939392909710e+00,7.713557887599173490e+00,1.245153786012667574e+01
-4.993142998677130073e+00,7.034801515378702241e+00,1.245179720667552736e+01
-6.180427272284259033e+00,6.128630261454809158e+00,1.245156722449522135e+01
-7.194205226896168703e+00,5.024666991577482200e+00,1.245167326299227817e+01
-8.015107693455805205e+00,3.713627733542088194e+00,1.245142162712396328e+01
-8.596435212021454220e+00,2.245820845870538651e+00,1.245127135734762724e+01
-8.949639161972548607e+00,6.785447490885180288e-01,1.245178593971506409e+01
-8.987238669558571758e+00,-9.399444252835311708e-01,1.245196570526162816e+01
-8.707824583932104900e+00,-2.547044299692971858e+00,1.245269443068444915e+01
-8.124376190137759579e+00,-4.071705447727561378e+00,1.245271498368213337e+01
-7.084763908148771883e+00,-5.377168258099059628e+00,1.245268944564022995e+01
-5.832305206970029410e+00,-6.411558548826096882e+00,1.245172280168578283e+01
-4.457140257438171993e+00,-7.184259247934027925e+00,1.245137679991703905e+01
-2.974818782462975708e+00,-7.517240400877119200e+00,1.245183632156777698e+01
-1.512385532157168866e+00,-7.447585020990262095e+00,1.245175272539615818e+01
-1.034429316053597780e-01,-7.057180911976824511e+00,1.245207822146426047e+01
1.095479112004019928e+00,-6.450771089967926031e+00,1.245201031864890417e+01
2.017591056506133906e+00,-5.614686058252069678e+00,1.245131504567353531e+01
2.699838012254086372e+00,-4.794473960397783507e+00,1.245175321204845176e+01
3.172262530500551403e+00,-3.985339958170167840e+00,1.245169105393577169e+01
3.440699242538034941e+00,-3.160668369816924894e+00,1.245171075142863160e+01
3.598236082494809196e+00,-2.455191211390874262e+00,1.245219091852281323e+01
3.697479484221207535e+00,-1.862918872207452115e+00,1.245179557636420142e+01
3.770668051996349579e+00,-1.355262778738062224e+00,1.245185515171667312e+01
3.937024649320023606e+00,-9.069946663414278909e-01,1.245163174034090048e+01
4.176766180790602689e+00,-4.967161932045056072e-01,1.245170426982202017e+01
4.407378357139282166e+00,-6.897126020744187569e-02,1.245182711546929255e+01
4.577419281490328729e+00,4.791560156481305954e-01,1.245171891706116973e+01
4.726595126557725735e+00,1.153771633098853666e+00,1.245119978266606608e+01
4.758055807731201625e+00,1.883692667508287677e+00,1.245123960924904694e+01
4.750338397579399796e+00,2.663139860435256079e+00,1.245138950801946720e+01
4.897680898479948475e+00,3.469791470650182674e+00,1.057010494375450449e+01
4.699414623498041621e+00,4.414575068879152298e+00,1.057007336816694121e+01
4.241834783020393296e+00,5.287149898016239469e+00,1.057040061882381998e+01
3.603135404659276730e+00,6.140846110188683760e+00,1.057034689127413785e+01
2.744660611342832901e+00,6.838174327793502982e+00,1.056959949017974232e+01
1.725935946819723954e+00,7.399875443489425386e+00,1.056996741656634242e+01
5.472466381597247409e-01,7.866194021936282255e+00,1.056967885643338967e+01
-7.737403420579783697e-01,7.984267223076971121e+00,1.057042252667977955e+01
-2.097388110845336939e+00,7.890165002311015918e+00,1.057050632041814708e+01
-3.462797131375766391e+00,7.568555094520840854e+00,1.057043207060361212e+01
-4.786488309639278960e+00,6.953542942399927540e+00,1.057052966947352424e+01
-6.002454926657736500e+00,6.085135652885527158e+00,1.057064390961165934e+01
-7.047716512232757857e+00,5.008660135323346196e+00,1.057112894236198386e+01
-7.912877800121855820e+00,3.758193929579479953e+00,1.057079165255013997e+01
-8.569888359151491386e+00,2.294903247373663469e+00,1.056975623050937863e+01
-8.984586531768735895e+00,6.918220995483954638e-01,1.056990034721200011e+01
-9.089632636897096774e+00,-1.001005323211539455e+00,1.057087451704898662e+01
-8.791623418177891836e+00,-2.705294003428289074e+00,1.057149520536007614e+01
-8.161669649756010614e+00,-4.299069107997309125e+00,1.057120547671269684e+01
-7.251589224970304670e+00,-5.692770301706571168e+00,1.057096243478499353e+01
-5.988765523915254185e+00,-6.777198619886184439e+00,1.057051973646615473e+01
-4.511787778854272624e+00,-7.546052835971277517e+00,1.057031137696683842e+01
-2.986050673030278269e+00,-7.959935037387642964e+00,1.057038213091878198e+01
-1.451949340040762149e+00,-7.902107344732568706e+00,1.057040323579833618e+01
3.540362286905485156e-02,-7.477443957426697096e+00,1.057045426287426260e+01
1.256340864955111547e+00,-6.833195870642223113e+00,1.057107927005472270e+01
2.207431315439535524e+00,-6.111095871937781254e+00,1.057078872946527071e+01
2.962455168070227352e+00,-5.175046766037980639e+00,1.057028295661166695e+01
3.502227589246003525e+00,-4.301187921037738171e+00,1.057072822791202782e+01
3.833869907562974522e+00,-3.383119960661022940e+00,1.057064691640699117e+01
4.019627251702342363e+00,-2.596005473844455569e+00,1.057102669738646128e+01
4.072591375489937882e+00,-1.901638630542305641e+00,1.057165038935825940e+01
4.110221240474323245e+00,-1.329325815976861946e+00,1.057058111152767488e+01
4.220172797696289280e+00,-8.664148000085631907e-01,1.057035485523131157e+01
4.395067997939951177e+00,-4.627111816532175070e-01,1.057120151931822072e+01
4.604675760783061733e+00,7.017379717017380170e-03,1.056997616341333668e+01
4.738655760244732562e+00,5.544671580589922710e-01,1.057057240908210893e+01
4.798438537897853351e+00,1.191691174544624365e+00,1.057062569680358699e+01
4.821195862147670930e+00,1.865194795859721477e+00,1.057034970327234369e+01
4.853963691167023420e+00,2.595329124737741466e+00,1.057018150724472250e+01
4.753328881360006974e+00,3.412046967729125413e+00,8.689298007769558296e+00
4.556869382109781874e+00,4.310355900885599389e+00,8.689301831910389851e+00
4.139770890121423186e+00,5.197695091778596677e+00,8.689319675167473278e+00
3.524188857539739317e+00,6.073215729709454891e+00,8.689030736929966636e+00
2.668755042290933410e+00,6.717321063024925820e+00,8.688179895317366785e+00
1.648222669712589017e+00,7.235633355759881979e+00,8.688729349194396434e+00
4.702424984434830924e-01,7.676663884225691348e+00,8.688875047294837728e+00
-8.445363787955800783e-01,7.767784440335249840e+00,8.688266442894219566e+00
-2.161554446960197939e+00,7.645028950089876041e+00,8.688792152487023301e+00
-3.505230526079245124e+00,7.335098970308560062e+00,8.689466169549637797e+00
-4.817832968878299482e+00,6.787708305195315539e+00,8.689083345861520868e+00
-6.017434385737332470e+00,5.950573015666305032e+00,8.688772043648409493e+00
-7.043957086104968290e+00,4.903846184655836105e+00,8.688922769019262304e+00
-7.898835386752993237e+00,3.682911353768133722e+00,8.688826884378931581e+00
-8.557897847223228993e+00,2.267255641883412665e+00,8.688788104006437862e+00
-8.981303889905056792e+00,6.693032486221540678e-01,8.689244496097140669e+00
-9.121235409146414952e+00,-1.040659006936685449e+00,8.689660328448718829e+00
-8.885424983400461940e+00,-2.778357000308022684e+00,8.689948992642369419e+00
-8.262640119154312401e+00,-4.399680593151405361e+00,8.689603393836099698e+00
-7.337553991704671041e+00,-5.786537923817521190e+00,8.689291600928722659e+00
-6.043155639505522814e+00,-6.892193022795895629e+00,8.689266524792762070e+00
-4.566771086390514434e+00,-7.677860838523168141e+00,8.689923636006344765e+00
-3.022568641092589381e+00,-8.130178518147733513e+00,8.688874918968247485e+00
-1.406384826156334977e+00,-8.063761230906004940e+00,8.688747229250273207e+00
5.361401903917339951e-02,-7.643438365748554730e+00,8.689102636618835973e+00
1.248235766653083001e+00,-7.031229412605926044e+00,8.689168431951348026e+00
2.249198029595402382e+00,-6.260159387922071161e+00,8.688443340464143461e+00
3.008436925333169754e+00,-5.352027877451567051e+00,8.687679769556432063e+00
3.580409064206115488e+00,-4.451143439190698103e+00,8.689060454772121744e+00
3.954158516868258033e+00,-3.532089616509960450e+00,8.689606802723574219e+00
4.161682207345849704e+00,-2.724820094205745669e+00,8.689602045457506918e+00
4.241104407444590052e+00,-1.985465354713678465e+00,8.689269758644478259e+00
4.283481957790014505e+00,-1.387061537282837875e+00,8.689992486644158021e+00
4.368368019484461406e+00,-8.646953412724591725e-01,8.688522446805519550e+00
4.515045015807125139e+00,-4.458402345870683403e-01,8.688228937979983968e+00
4.661821250005229622e+00,7.623157058752677573e-02,8.689689149747314545e+00
4.769585417402650407e+00,6.328046979034235298e-01,8.689431701970617539e+00
4.792960635856410079e+00,1.233116307539201983e+00,8.688610213641741353e+00
4.831137299385903638e+00,1.886020393765235559e+00,8.689182265264415506e+00
4.820400587197654296e+00,2.594299968833509773e+00,8.689699355776236089e+00
4.672714561978201786e+00,3.347686208933265739e+00,6.806447220263485143e+00
4.448464401110317823e+00,4.207461355988581175e+00,6.807753155931387745e+00
4.042572460257353839e+00,5.092800834441484348e+00,6.808195939712800460e+00
3.419386113873904343e+00,5.961090568726307382e+00,6.807033772529856641e+00
2.569756547435156691e+00,6.610271992919845019e+00,6.806938232887502771e+00
1.543318140978897191e+00,7.085148813903694887e+00,6.807071776042451283e+00
3.745549930849918496e-01,7.496402803714516949e+00,6.807731177331175054e+00
-9.048313334251903983e-01,7.613284456583429005e+00,6.807577695164824583e+00
-2.253322998917905995e+00,7.494948915481185914e+00,6.807800424113409576e+00
-3.558591439643657761e+00,7.187051272590041506e+00,6.807960058032366923e+00
-4.873228417228088638e+00,6.624704389137241911e+00,6.806682829871568252e+00
-6.053181008168450283e+00,5.825557816563660118e+00,6.806674118509819849e+00
-7.083352200253672848e+00,4.801844470257210951e+00,6.808211287850849835e+00
-7.926444689818012534e+00,3.593815958744185579e+00,6.807388407960781151e+00
-8.571518840493274283e+00,2.199094672353933966e+00,6.806049300384009904e+00
-8.992507626242108643e+00,6.292215873530336845e-01,6.806396637392754911e+00
-9.139025655918025848e+00,-1.085512633704647678e+00,6.807765486922637166e+00
-8.916262500089239040e+00,-2.820990305712843593e+00,6.807686340948779780e+00
-8.246111298423649316e+00,-4.418728850113477158e+00,6.807807323321691584e+00
-7.285540569976562963e+00,-5.816538334171363900e+00,6.808039754278986777e+00
-6.036009742151684065e+00,-6.964976578001320640e+00,6.807731815664737951e+00
