-3.071401509102201111e+00,7.311659916618757471e+00,1.550549656449209834e+01
-4.067722663833782448e+00,6.554708060183350504e+00,1.550549656459822678e+01
-4.884469913821674503e+00,5.657392694685980494e+00,1.550549654952904532e+01
-5.484292177576671534e+00,4.662932524458423877e+00,1.550549648908647882e+01
-5.876953755383109268e+00,3.646637027503209172e+00,1.550549658175687995e+01
-6.102902504960101560e+00,2.634575784293665901e+00,1.550549661221873876e+01
-6.170128376401912362e+00,1.647809916314993739e+00,1.550549662402650952e+01
-6.086756635595729215e+00,6.845301956043561287e-01,1.550549661683827907e+01
-5.888590903122604026e+00,-2.246234393213318026e-01,1.550549660429275178e+01
-5.574237654305663092e+00,-1.085006447677739905e+00,1.550549658986632195e+01
-5.144634978188132202e+00,-1.874299169350344796e+00,1.550549652107100584e+01
-4.618558628952349920e+00,-2.578910871753989031e+00,1.550549650632348531e+01
-4.012583514093869930e+00,-3.203005544041201080e+00,1.550549648388394175e+01
-3.358499268074854882e+00,-3.710057213549560196e+00,1.550549653608861789e+01
-2.649090420176567040e+00,-4.122400441247254577e+00,1.550549657391576375e+01
-1.907080429153851231e+00,-4.453649185300865732e+00,1.550549658495535432e+01
-1.145685026925313599e+00,-4.682657201966613059e+00,1.550549654292722579e+01
-3.378782966311401625e-01,-4.820568775903028680e+00,1.550549649099701632e+01
4.896906050586681269e-01,-4.834650957024900997e+00,1.550549650660125423e+01
1.329906370414254635e+00,-4.688096905185060947e+00,1.550549657746787702e+01
2.151100083482282876e+00,-4.412030195902148400e+00,1.550549654657813647e+01
2.916427495308947737e+00,-4.000322279487213528e+00,1.550549653365971636e+01
3.644061229134361479e+00,-3.492897234420770936e+00,1.550549661536282287e+01
4.312132927277044558e+00,-2.898312626362603339e+00,1.550549662439715703e+01
4.921424428302676013e+00,-2.208095122921622799e+00,1.550549668170033968e+01
5.442761553060606161e+00,-1.419814755173731458e+00,1.550549667665190867e+01
5.869225596792982280e+00,-5.468310721844187317e-01,1.550549663360658137e+01
6.187754066794600938e+00,4.211930421875295649e-01,1.550549663528589051e+01
6.362041669827005030e+00,1.433024487262704927e+00,1.550549656000681509e+01
6.359436325795733147e+00,2.501701013149182806e+00,1.550549659217630349e+01
6.141528956003696749e+00,3.586615349594849622e+00,1.550549664427060215e+01
5.721532283968803867e+00,4.620268984740343754e+00,1.550549673514584725e+01
5.220435052409152732e+00,5.511932288189126616e+00,1.413622052995621559e+01
4.381916570707038439e+00,6.224613193048742055e+00,1.413693680249708606e+01
3.449642428090426538e+00,6.803835552943466425e+00,1.413683413927125265e+01
2.478397063673880574e+00,7.264830269052825251e+00,1.413654121632647254e+01
1.437668745862110464e+00,7.545552505686496936e+00,1.413724912160651748e+01
3.092022613109505769e-01,7.667837428434016722e+00,1.413744857916932318e+01
-8.393667259771055988e-01,7.525156564011544091e+00,1.413717037810920196e+01
-1.892557435126265064e+00,7.147542882116515450e+00,1.413726802029675156e+01
-2.858342308323760239e+00,6.571101948973099738e+00,1.413697305826135420e+01
-3.722259566024012312e+00,5.886501022935033411e+00,1.413727614343230066e+01
-4.408128992252663636e+00,5.075901239179539282e+00,1.413756959653137280e+01
-4.979118271092301207e+00,4.258338713926525188e+00,1.413715560023503670e+01
-5.364943327792494721e+00,3.361886023586795780e+00,1.413803212948204724e+01
-5.594950432157763665e+00,2.458124842072499483e+00,1.413813015839062892e+01
-5.740405386128977661e+00,1.569546442857488122e+00,1.413731550372073897e+01
-5.789709755392657087e+00,6.719107839826137241e-01,1.413737942762265476e+01
-5.792516849467642892e+00,-2.128173967488123097e-01,1.413773936322647984e+01
-5.648279847493171246e+00,-1.079981968843958251e+00,1.413661303896890686e+01
-5.378380178476905193e+00,-1.973390626494499145e+00,1.413663689429745496e+01
-4.911296847236748420e+00,-2.828249603987395222e+00,1.413746800928983305e+01
-4.254718366570128474e+00,-3.477213406831822340e+00,1.413753790095063323e+01
-3.508653027249575285e+00,-3.964401387937667387e+00,1.413770761600976300e+01
-2.717175546412172071e+00,-4.398495254654577913e+00,1.413806886276233499e+01
-1.895581218569465376e+00,-4.704458767356820559e+00,1.413710848465457559e+01
-1.030036198962094751e+00,-4.863944528062847716e+00,1.413613626493328645e+01
-1.417728814391915337e-01,-4.970206956010125410e+00,1.413702261983490160e+01
7.638178555486118126e-01,-5.012548746109316333e+00,1.413683587808623621e+01
1.647033205594180316e+00,-4.855159629369831364e+00,1.413750137128979034e+01
2.557091446366326792e+00,-4.691983799797040611e+00,1.413759484309413672e+01
3.327759341614338062e+00,-4.271283934100654989e+00,1.413731521319045825e+01
3.990742335860603340e+00,-3.685041871246945711e+00,1.413724190400005831e+01
4.692344391572129680e+00,-3.081397337977291429e+00,1.413752373253669781e+01
5.349563399256594742e+00,-2.380629102383297280e+00,1.413716453125528361e+01
5.890238419013956062e+00,-1.536661290263605206e+00,1.413674717683625559e+01
6.447209596617365257e+00,-6.242320381292354448e-01,1.413694174773494083e+01
6.847029805254594592e+00,4.203410426900969221e-01,1.413705601192933159e+01
6.975461779383741678e+00,1.530088887847322221e+00,1.413760355197651819e+01
6.876980477299779793e+00,2.702459431639271603e+00,1.413739996192473036e+01
6.501974926755605289e+00,3.788952323221762786e+00,1.413735320400045481e+01
5.918357004409157796e+00,4.700454578143798301e+00,1.413690060659253334e+01
5.077826573330240123e+00,5.483621994950584444e+00,1.277041473593943266e+01
4.176877357622414522e+00,6.104715367156452466e+00,1.276989105931750679e+01
3.220052526886520550e+00,6.564724461743336903e+00,1.276991161950381581e+01
2.255937362529877088e+00,6.918547170471226693e+00,1.276907684309322377e+01
1.271589046499694176e+00,7.051884031468325986e+00,1.276930368980466213e+01
2.345034840460347159e-01,7.070213254561632077e+00,1.277005751738304262e+01
-7.966664010695025944e-01,6.891936695365391330e+00,1.276918478139111457e+01
-1.724091822516228945e+00,6.529263255352537598e+00,1.276931893494993275e+01
-2.597552315691302738e+00,6.027660606960592915e+00,1.276963147370934593e+01
-3.391605116257288888e+00,5.403386930216941053e+00,1.276930185064264478e+01
-4.034446847974308525e+00,4.725789164772011830e+00,1.276922693930310793e+01
-4.592192750427000369e+00,3.995701690288285146e+00,1.276875006737037666e+01
-5.004570544739585181e+00,3.183793634630123659e+00,1.276897019250882970e+01
-5.274814447860170397e+00,2.327262532793019201e+00,1.276941515947680195e+01
-5.474796549091783149e+00,1.527662354726289973e+00,1.276976970452189519e+01
-5.628278291420284241e+00,6.718395085716365456e-01,1.276954502243442846e+01
-5.744556819388777491e+00,-1.984100889831076908e-01,1.276937481210855907e+01
-5.709662897493184452e+00,-1.077246551418407305e+00,1.276886899360845007e+01
-5.556451081124894387e+00,-2.024726699556716802e+00,1.276896373400265006e+01
-5.132642464316651498e+00,-2.918990194764437884e+00,1.276962836626994857e+01
-4.395395010309813166e+00,-3.561897447081640244e+00,1.276934196919770592e+01
-3.736914437218171514e+00,-4.218866020647396020e+00,1.276916310549618139e+01
-2.919079030982765666e+00,-4.759884270403205164e+00,1.276968357266412646e+01
-2.037596588178048673e+00,-5.092643579667083920e+00,1.276952497565413935e+01
-1.113265542974506639e+00,-5.351771704402524144e+00,1.276919674702502050e+01
-1.295170480818446379e-01,-5.577538862652800411e+00,1.276878263251355072e+01
8.626714853476521450e-01,-5.548057095313392750e+00,1.276920929566271390e+01
1.823941267903332220e+00,-5.344318905374686679e+00,1.276938913946072773e+01
2.821775697916968362e+00,-5.146480471208598750e+00,1.276909858822368271e+01
3.670536184861780793e+00,-4.674310799700429619e+00,1.276901123866402443e+01
4.389243033120293624e+00,-4.048490102367911625e+00,1.276891284432648810e+01
5.098787546876952348e+00,-3.351702221231662282e+00,1.276953619634061177e+01
5.786286574459897025e+00,-2.594832759917386156e+00,1.276929688320645262e+01
6.303082802971450960e+00,-1.676189301887258454e+00,1.276929380401994507e+01
6.854054562469078071e+00,-7.003621886755548864e-01,1.276969182884433707e+01
7.170139284847362404e+00,4.209494077089103725e-01,1.276939060041481966e+01
7.229433481350286073e+00,1.578956412901301176e+00,1.276940277717059402e+01
7.008999720669446098e+00,2.745285967701056151e+00,1.276901310043644777e+01
6.538950329911095594e+00,3.842905937570770369e+00,1.276877899769558766e+01
5.865224482656078209e+00,4.732981399933655631e+00,1.276985564110938753e+01
4.967424165244853640e+00,5.318359685940476034e+00,1.140086758850152826e+01
4.066811492209687628e+00,5.892402622547796121e+00,1.140078526909651657e+01
3.120786768499824504e+00,6.283037907362413854e+00,1.140065885127531153e+01
2.178786471806279046e+00,6.590980669628106803e+00,1.140117821765525008e+01
1.223637905614367138e+00,6.636185282025904186e+00,1.140099369645668581e+01
2.612726474445397074e-01,6.580442175682824413e+00,1.140020307091225682e+01
-6.699918300291300977e-01,6.398933185020505121e+00,1.140039318053492501e+01
-1.543937428327892381e+00,6.130566572029345629e+00,1.140191816890735588e+01
-2.367164077307883474e+00,5.677994076910122700e+00,1.140106658570908138e+01
-3.124061123743353097e+00,5.134332154194464870e+00,1.140025073578174286e+01
-3.768316307132241416e+00,4.516298476146727303e+00,1.140062803476521580e+01
-4.337597122435426833e+00,3.832568242649223578e+00,1.140079865753756394e+01
-4.768333773651333374e+00,3.077834697128871699e+00,1.140042647180004032e+01
-5.117137039009731048e+00,2.275764411007871413e+00,1.140146948876196120e+01
-5.400728185094604505e+00,1.486286175057780934e+00,1.140136644168381963e+01
-5.673785805586660125e+00,6.229918834403422867e-01,1.140037636113769004e+01
-5.828504604033793335e+00,-2.678317386219161156e-01,1.140075050841367954e+01
-5.842865629329822674e+00,-1.193240142112027113e+00,1.140057417597543754e+01
-5.730704733853356103e+00,-2.165081092332591606e+00,1.140068248352513436e+01
-5.388657560287745341e+00,-3.166148749510453442e+00,1.140123340473538072e+01
-4.788059892611510548e+00,-4.026986080448097027e+00,1.140075508284560968e+01
-4.056449025643484418e+00,-4.793609685418327437e+00,1.140053023214911576e+01
-3.131686378364205048e+00,-5.372764868734984489e+00,1.140085817381708821e+01
-2.191981503824083966e+00,-5.836318794641761620e+00,1.140136526948129614e+01
-1.178238409583861612e+00,-6.163502342262757949e+00,1.140063608127404393e+01
-7.502619735491852793e-02,-6.279658936020865667e+00,1.139973769716789675e+01
9.997689435335321839e-01,-6.213213033938954410e+00,1.140064275105159552e+01
2.042801275337295053e+00,-5.986189553793387574e+00,1.140087218533558655e+01
3.116357508137135746e+00,-5.700862366107150692e+00,1.140115174761616856e+01
4.022899136342330095e+00,-5.153432195951296535e+00,1.140073668244524185e+01
4.837126953682632013e+00,-4.470908789186113452e+00,1.140034452367359918e+01
5.597907058544138614e+00,-3.726215111179328687e+00,1.140075732486921467e+01
6.247869609480665609e+00,-2.861832253417542216e+00,1.140076050433074961e+01
6.722768087578072205e+00,-1.871510690596078330e+00,1.140109065133499655e+01
7.135498841947320869e+00,-8.041612514525398048e-01,1.140136485197289140e+01
7.341464448900387296e+00,3.544241140500388187e-01,1.140161530689175962e+01
7.301051627721005133e+00,1.537301376323768842e+00,1.140119319855705626e+01
7.005439483280729185e+00,2.676503078571290217e+00,1.140158257353077431e+01
6.501425793469419290e+00,3.730794906982414449e+00,1.140232595620360811e+01
5.788448013385723456e+00,4.609364990530573358e+00,1.140129077449650197e+01
4.818902789900954886e+00,5.108311724163989709e+00,1.003207465403634124e+01
3.935143328439917987e+00,5.649389674209531975e+00,1.003260234828408848e+01
2.997055474327072755e+00,5.997443488532241851e+00,1.003240612074317362e+01
2.069383552588129671e+00,6.279776594205479512e+00,1.003255617944483546e+01
1.129947915278149750e+00,6.269632800132150408e+00,1.003193824154982927e+01
2.328253954194276221e-01,6.190072751429203102e+00,1.003199019355694332e+01
-6.526015971953996742e-01,6.082351225694690555e+00,1.003362363586320605e+01
-1.462392866337436370e+00,5.803910687330852802e+00,1.003311954856958899e+01
-2.265768026807751134e+00,5.427686814900979151e+00,1.003252268951978721e+01
-3.020825160439521540e+00,4.945778903487545008e+00,1.003272119545504282e+01
-3.681252409155790772e+00,4.361729131643892643e+00,1.003279888828834387e+01
-4.258045023758582737e+00,3.696630992105798708e+00,1.003312971998734326e+01
-4.736669488244412030e+00,2.987976765672679225e+00,1.003286983991232795e+01
-5.130943871465061257e+00,2.221881026826871608e+00,1.003215645186473104e+01
-5.470553714616750440e+00,1.441236469523951236e+00,1.003148813325193345e+01
-5.786095820454396410e+00,5.676118528208254910e-01,1.003265084124656603e+01
-5.993930931575759402e+00,-3.757830170292124627e-01,1.003253315827800485e+01
-6.019432827597044344e+00,-1.346052870562126191e+00,1.003235785894761456e+01
-5.860574257229915318e+00,-2.359909016671116522e+00,1.003259824334027073e+01
-5.504313737234308057e+00,-3.363675197411101880e+00,1.003250204083380126e+01
-4.914217388692694755e+00,-4.310427393521746531e+00,1.003258314486449621e+01
-4.158088096494723551e+00,-5.156122193709317791e+00,1.003290853025097995e+01
-3.254284493030004111e+00,-5.834647216806800429e+00,1.003265000897751413e+01
-2.256542208804724226e+00,-6.352536843118477883e+00,1.003247934686458542e+01
-1.175125962835499749e+00,-6.691869614633059626e+00,1.003248901594140285e+01
-7.392116204213800001e-02,-6.798471897945162823e+00,1.003208143516577167e+01
1.037723092919034640e+00,-6.737041364355460971e+00,1.003215457524963838e+01
2.132308762133033220e+00,-6.500148586190552358e+00,1.003215459501987539e+01
3.210128267304889871e+00,-6.136652952887393653e+00,1.003252502421061365e+01
4.186705485236953628e+00,-5.537667794052975268e+00,1.003297789016796493e+01
5.110025898959440482e+00,-4.858211538568843579e+00,1.003317488653499900e+01
5.892890326800437784e+00,-4.043651158933743162e+00,1.003297970001633566e+01
6.532392717344271738e+00,-3.126062071283838062e+00,1.003262762998498303e+01
7.008057137212245991e+00,-2.074734246686575023e+00,1.003318430369000325e+01
7.317940503054108703e+00,-9.425969016949317103e-01,1.003322955805545824e+01
7.448540076614375671e+00,2.539025069213675656e-01,1.003312486278803917e+01
7.306777382517116948e+00,1.442094647448761036e+00,1.003191459645890582e+01
6.958777618771064155e+00,2.567691472085383619e+00,1.003135003417836835e+01
6.415838078639469977e+00,3.574829082621147069e+00,1.003196084279454325e+01
5.665312066115694378e+00,4.426889768283075455e+00,1.003202546688094188e+01
4.671659698271836803e+00,4.922706103556437007e+00,8.664547129601354314e+00
3.824912125970938437e+00,5.439206136337271680e+00,8.664869082351923879e+00
2.901611856216900431e+00,5.784341189999975263e+00,8.664878019417773913e+00
1.974645168037117982e+00,6.034186943164122852e+00,8.665061890790786592e+00
1.055581299922492722e+00,6.028937608485231081e+00,8.664254305168286763e+00
1.914535748943717586e-01,5.937917322881299143e+00,8.663232988051719374e+00
-6.324322939977202740e-01,5.819017236474716803e+00,8.663927115416591107e+00
-1.444062530917547882e+00,5.606179039856652224e+00,8.665105617405002292e+00
-2.233277991881006397e+00,5.257263431652851260e+00,8.664546363722593014e+00
-2.974762907265818157e+00,4.816129567905170994e+00,8.664533578203547748e+00
-3.635213726113485144e+00,4.266420149719583499e+00,8.664322287512668197e+00
-4.219306829791653612e+00,3.629934352078645343e+00,8.663980855911420420e+00
-4.728712518871783566e+00,2.959802150977208335e+00,8.663970729906383283e+00
-5.161138535246899472e+00,2.208793053726239908e+00,8.664486802122929987e+00
-5.542571912049490734e+00,1.414497706962650980e+00,8.664221567241760624e+00
-5.845754550640024583e+00,5.347259769905126081e-01,8.664005805619197531e+00
-6.032868314741431703e+00,-4.344447367211025091e-01,8.664778032560569443e+00
-6.029633424416256382e+00,-1.449503204862824468e+00,8.665008092133369644e+00
-5.821109019892591441e+00,-2.463626922074796166e+00,8.664713570801842124e+00
-5.491639881808112023e+00,-3.492318122773598876e+00,8.664240046736011891e+00
-4.964665110966858919e+00,-4.502206796850430237e+00,8.664786039229896986e+00
-4.225064335053954068e+00,-5.420318715744496529e+00,8.665379582160641192e+00
-3.322749154941565752e+00,-6.173864275910351473e+00,8.664547933101694355e+00
-2.291550666468029629e+00,-6.718860849367848331e+00,8.664728339546091007e+00
-1.168040051329678253e+00,-7.078690804934193892e+00,8.664485171904264149e+00
-5.927458790772227593e-02,-7.212723602739100848e+00,8.664017460026016693e+00
1.072211924705345210e+00,-7.146661009643672458e+00,8.664753192819349081e+00
2.202462939008255294e+00,-6.868194108636369144e+00,8.664627915872742392e+00
3.318326973534373892e+00,-6.450983619475025854e+00,8.664398765822646453e+00
4.333825733026991145e+00,-5.819235581922269418e+00,8.664279986081936613e+00
5.294897866078272841e+00,-5.104693910761825215e+00,8.664339129569810893e+00
6.081137070634220265e+00,-4.222308700964511274e+00,8.664787838019869071e+00
6.710911720840120331e+00,-3.236452136500433507e+00,8.664760967129469194e+00
7.149484959010949048e+00,-2.141294940012458348e+00,8.663925359359232914e+00
7.364723372382057320e+00,-9.580963759481958553e-01,8.663490208117048397e+00
7.382787919837793034e+00,2.457769069096861492e-01,8.664033750093848241e+00
7.193481301248602300e+00,1.410022626021976144e+00,8.664461992913325972e+00
6.848952743517678243e+00,2.507846180896778243e+00,8.663610168207403817e+00
6.264522764098678032e+00,3.472829191189389597e+00,8.664203942017095983e+00
5.499429474074430502e+00,4.263083426219188787e+00,8.664510653385303129e+00
4.468400513530486506e+00,4.735080408644225081e+00,7.296005755746988619e+00
3.655082776276353584e+00,5.268338894628702640e+00,7.296903927315023353e+00
2.758832472613047315e+00,5.625044100188700824e+00,7.295815917845658305e+00
1.852227285753016428e+00,5.855328925488928249e+00,7.295384201211172481e+00
9.584240417586730176e-01,5.890625485666012295e+00,7.296488724742227205e+00
1.093811164118300289e-01,5.769709651906679504e+00,7.295622839916483748e+00
-6.991937821395359798e-01,5.636189757129661970e+00,7.295765584963661787e+00
-1.532772726514153527e+00,5.449854323953173818e+00,7.295889465806165930e+00
-2.284296729216940047e+00,5.129298654859695716e+00,7.296669011579260733e+00
-3.018681794268170293e+00,4.708056705229664907e+00,7.296644818509594899e+00
-3.681461223785634562e+00,4.181629971063064666e+00,7.296792221562848013e+00
-4.262258487896835035e+00,3.556557177748666643e+00,7.296510065928874411e+00
-4.784605647279779994e+00,2.892986501309875447e+00,7.296644674771805228e+00
-5.231607503524895009e+00,2.156399708803252047e+00,7.296827274858561196e+00
-5.587796733625883583e+00,1.364909392293161661e+00,7.296377452812749631e+00
-5.862394732292642630e+00,4.776184164362742846e-01,7.295989902443563935e+00
-6.033472786728607318e+00,-4.925976831420434410e-01,7.296815186621733673e+00
-6.062935883268994353e+00,-1.519816833003797107e+00,7.296281420082556757e+00
-5.859837811599813762e+00,-2.569906666932677552e+00,7.295687819383955386e+00
-5.508119665439985546e+00,-3.598469681366222694e+00,7.296217887960108506e+00
-4.973331160226152292e+00,-4.605202032482260677e+00,7.296242505225252195e+00
-4.254236944061648984e+00,-5.548323323435089272e+00,7.296580918124492499e+00
-3.365906713548989515e+00,-6.331508240918152453e+00,7.296265905888534853e+00
-2.327771801408949237e+00,-6.912163621465744257e+00,7.295497578629306368e+00
-1.214161075693146685e+00,-7.297694562205016666e+00,7.295434792552371484e+00
-1.023097382038508085e-01,-7.465767020684397792e+00,7.296360544596595332e+00
1.065056230498437007e+00,-7.363953815664901370e+00,7.296691426725980811e+00
2.213217669563293022e+00,-7.058783739296962345e+00,7.296494664477173764e+00
3.336321855286227933e+00,-6.629501212685989131e+00,7.295562659808109807e+00
4.373477987327422767e+00,-5.980080680697668960e+00,7.295894214948604350e+00
5.323254239807240218e+00,-5.207769574676394342e+00,7.296582160395471917e+00
6.095632431813931440e+00,-4.289987193351840311e+00,7.296972227515880149e+00
6.701180926274510341e+00,-3.270965118176385911e+00,7.296364659685846021e+00
7.133102035298931831e+00,-2.147745656311387918e+00,7.294925702158483460e+00
7.303663153893213078e+00,-9.627830572422141353e-01,7.295897719338644727e+00
7.259358948885160423e+00,2.303344814020253650e-01,7.297128196675682688e+00
7.028976457074104012e+00,1.380179133981648487e+00,7.295756444304378974e+00
6.662883555349321973e+00,2.449603438162981650e+00,7.296221736734720409e+00
6.065507741663482832e+00,3.372421679731240296e+00,7.296749665368037263e+00
5.281678880550598976e+00,4.110299425042247101e+00,7.295977788830644073e+00
4.308725262980765969e+00,4.615379020393404197e+00,5.927903756445202177e+00
3.494295196653538049e+00,5.153486494503891180e+00,5.927540582381837453e+00
2.627473462225056622e+00,5.523634064753286665e+00,5.928065683525427509e+00
1.746727395421674212e+00,5.741185551552114852e+00,5.927781683597380002e+00
8.532175217463044969e-01,5.816906373938221186e+00,5.928186186057914142e+00
-9.964975283634897735e-03,5.678613719375329438e+00,5.928262717378021129e+00
-8.207233978387505902e-01,5.519184014612372735e+00,5.928157181571418910e+00
-1.602586877166336521e+00,5.302249013626433971e+00,5.927695997829371066e+00
-2.371704739965911024e+00,5.037631787042103682e+00,5.928137850515215135e+00
-3.071370316477278095e+00,4.618084692689295778e+00,5.927681609660211848e+00
-3.718607008599174701e+00,4.105191124694764326e+00,5.927826737142181557e+00
-4.296991226314652579e+00,3.485412797265737606e+00,5.927991538540392291e+00
-4.821738095593098627e+00,2.825673130030796454e+00,5.928248628821142674e+00
-5.255909429031905944e+00,2.088692224129248487e+00,5.928487649419696304e+00
-5.647544901690359609e+00,1.296976401422303748e+00,5.928008870743422420e+00
-5.932821466736565519e+00,3.958437496136397171e-01,5.927474488606680580e+00
-6.080497559701521837e+00,-5.761199111403249029e-01,5.928440744524150929e+00
-6.112004090678171409e+00,-1.613679748165997907e+00,5.928791508413761235e+00
-5.891432732661095351e+00,-2.649374265061549938e+00,5.928977193977368998e+00
-5.496935647615828202e+00,-3.673614715252241147e+00,5.928552704457414002e+00
-4.959195130146252239e+00,-4.664535127677128301e+00,5.928293833182015860e+00
-4.263460270947994957e+00,-5.600220593341874498e+00,5.927985905473252437e+00
-3.375163864405837266e+00,-6.396123724344582762e+00,5.927145820438602719e+00
-2.352381293898284653e+00,-6.990921571941177248e+00,5.927060383570110780e+00
-1.262902880476687528e+00,-7.379061153522362915e+00,5.927955602794357404e+00
-1.375072570854036780e-01,-7.550571170712927938e+00,5.928848924861671144e+00
1.030306157569080172e+00,-7.429369763234550561e+00,5.928278706190700298e+00
2.167320367075273424e+00,-7.087707175285213879e+00,5.927188815805884303e+00
3.280940747968140947e+00,-6.637978713566526245e+00,5.927292086041298091e+00
4.292088184606471124e+00,-5.967730699481402112e+00,5.927691099212180958e+00
5.190441160510067320e+00,-5.157687914106885430e+00,5.927514754144099562e+00
5.923379702770898980e+00,-4.222618573260723984e+00,5.928030278299049272e+00
6.497874411226273850e+00,-3.201453971618361205e+00,5.928524665174910169e+00
6.932309611268125060e+00,-2.088691964781997257e+00,5.928154634099548126e+00
7.098331049893654487e+00,-9.493565438914016719e-01,5.927014047348314385e+00
7.057990294028254397e+00,2.076696114804191806e-01,5.927189204774200526e+00
6.814635239248223897e+00,1.331414158750456433e+00,5.928379671738069234e+00
6.379613985649206676e+00,2.352027000918839317e+00,5.928042481863428748e+00
5.800464477613890502e+00,3.246878198546956806e+00,5.927512502500827729e+00
5.089324653356946726e+00,3.984979748733466831e+00,5.927664826919276209e+00
4.119545448422436529e+00,4.556228472427179987e+00,4.559231033810625000e+00
3.319467369285332925e+00,5.087846127295297727e+00,4.559621757006278919e+00
2.489130954961952025e+00,5.483157697442933909e+00,4.560077073061324704e+00
1.615422627660199728e+00,5.707566711216354172e+00,4.559028674287179506e+00
7.407216850406911357e-01,5.778208755523086104e+00,4.559221126726136220e+00
-1.130633951608021603e-01,5.686746896579777832e+00,4.559681843210119823e+00
-9.154620470115157893e-01,5.488780955103374382e+00,4.559952706972635106e+00
-1.703553969529766121e+00,5.268738252193773342e+00,4.559843354382214997e+00
-2.433516835677290491e+00,4.948675638258115406e+00,4.560005172374046012e+00
-3.120825368407468048e+00,4.553886963615013883e+00,4.559932954446265896e+00
-3.767890188717748945e+00,4.065130244582547903e+00,4.560361964605163188e+00
-4.337690210499989263e+00,3.448356337307386443e+00,4.559740728654977815e+00
-4.858750819720326852e+00,2.765385983880586096e+00,4.559337312630581174e+00
-5.282274351543698288e+00,2.026631892068066154e+00,4.559584066252229562e+00
-5.620337008368299081e+00,1.218351952728739862e+00,4.559610272500361994e+00
-5.934812077952758891e+00,3.338939793795207556e-01,4.559251785816866409e+00
-6.107655556535594776e+00,-6.460534899910043150e-01,4.559368329869700531e+00
-6.087462723633703554e+00,-1.648000184858674499e+00,4.559789197626924029e+00
-5.862511879656318037e+00,-2.671800303431102197e+00,4.559955400247477364e+00
-5.467737206239823067e+00,-3.705705209828047852e+00,4.559870704511107320e+00
-4.916503297936995587e+00,-4.695670276671734200e+00,4.559835337522368803e+00
-4.248489006469680085e+00,-5.602064730132854997e+00,4.559679392694379274e+00
-3.390508644553399620e+00,-6.385651104475041251e+00,4.559542710955481581e+00
-2.377547870221341952e+00,-6.960738246638586979e+00,4.559443342802706134e+00
-1.300258629286279444e+00,-7.322240551956002541e+00,4.560406052066090510e+00
-1.864309720380099844e-01,-7.468725549468516967e+00,4.560910290288388680e+00
9.694868555992287584e-01,-7.334319278942538212e+00,4.559713755773906030e+00
2.081670721204390340e+00,-6.974643220248462505e+00,4.559745450250993315e+00
3.153886472766044502e+00,-6.506687464208465776e+00,4.559404810154675580e+00
4.105594357171923114e+00,-5.834366378480956072e+00,4.559629250322376315e+00
4.913552701330568873e+00,-4.986136494181632628e+00,4.560189926056042786e+00
5.585335994080024236e+00,-4.049944619450776884e+00,4.559512007840244685e+00
6.102080205541696500e+00,-3.063955094216399999e+00,4.559484376956882912e+00
6.478269114951300978e+00,-2.010645423071197424e+00,4.559964314680073905e+00
6.696390875198750869e+00,-9.232983334251602114e-01,4.559935051734840705e+00
6.688849339310213082e+00,1.869945995930993032e-01,4.559923749707826879e+00
6.517755582617552612e+00,1.267222932037621597e+00,4.559710700835545971e+00
6.143856804661487203e+00,2.275455119035324714e+00,4.559543134913674578e+00
5.581536648055557492e+00,3.171256683600689019e+00,4.559541561077960381e+00
4.899690605540587107e+00,3.942438533137293089e+00,4.559287625103493724e+00
3.920423712489785828e+00,4.476287981103440394e+00,3.190818317459349629e+00
3.146729158179144559e+00,5.004860150740454650e+00,3.190568618400222878e+00
2.352033294295052812e+00,5.422203853163661158e+00,3.191822299882346670e+00
1.510117945800476091e+00,5.656975079205711410e+00,3.191735855993181659e+00
6.478331759092089692e-01,5.720144132612814403e+00,3.191377473381226348e+00
-2.049276109977183347e-01,5.664404201190679444e+00,3.190753413244984849e+00
-1.009423386659529021e+00,5.491525654667484879e+00,3.191642888826548230e+00
-1.781726881337894808e+00,5.278393768584824564e+00,3.191622475788182811e+00
-2.499435663070300961e+00,4.933324061140252681e+00,3.192223728900096980e+00
-3.162763850950556677e+00,4.502101832057357811e+00,3.192042927836586497e+00
-3.801917062649715184e+00,4.022950223223095811e+00,3.192155091370616038e+00
-4.383410484291426101e+00,3.428548178535801849e+00,3.192130510344663996e+00
-4.916474618136945196e+00,2.757470071526839650e+00,3.191191874548161778e+00
-5.361720555340959038e+00,2.009477588311650464e+00,3.191756250284661256e+00
-5.682492441613938183e+00,1.188056808232303974e+00,3.191868379429985136e+00
-5.946486600637024722e+00,2.930578854824641977e-01,3.191269912524358876e+00
-6.033352911118321948e+00,-6.759920179902311199e-01,3.191446419768197540e+00
-6.054830265295937153e+00,-1.679285029011121644e+00,3.191453512992569408e+00
-5.903026358271897145e+00,-2.715310823255338679e+00,3.190793542495280022e+00
-5.457135961042490990e+00,-3.689949272767688360e+00,3.190769769939771017e+00
-4.873120345706955625e+00,-4.627672601157492238e+00,3.191219126316866106e+00
-4.225109418080619683e+00,-5.545347386200736750e+00,3.191328921539417163e+00
-3.371347067474510517e+00,-6.314302107265897135e+00,3.191477750383076462e+00
-2.381712351259011928e+00,-6.847563941900262741e+00,3.191584179365131835e+00
-1.331760058601655805e+00,-7.152961424804446189e+00,3.192047966771364820e+00
-2.203185189501066510e-01,-7.259329291837640419e+00,3.192301280847782863e+00
8.930937938827616662e-01,-7.117948902877284212e+00,3.191394522026689273e+00
1.958007717031422290e+00,-6.756693219397806871e+00,3.191254173769981772e+00
2.969242859056233641e+00,-6.255919234434545118e+00,3.191432290103456193e+00
3.857399887294064467e+00,-5.595116640187634438e+00,3.191580288905464968e+00
4.510412840106194032e+00,-4.739167924032028800e+00,3.192039506083584222e+00
5.175415126134804034e+00,-3.884171608659476860e+00,3.191954244771356031e+00
5.692359151673935358e+00,-2.935401106577823160e+00,3.191379552766945960e+00
6.097871040596026582e+00,-1.936442452284598659e+00,3.192069050721162426e+00
6.337022002880887683e+00,-8.853258506219967572e-01,3.192276438050433374e+00
6.328635771066853266e+00,1.670226728620131385e-01,3.191843066048957400e+00
6.188480086561658489e+00,1.226898070706688770e+00,3.190958443582105453e+00
5.855203274097015687e+00,2.255030241009257530e+00,3.191056933485648450e+00
5.338855208703215283e+00,3.133873204611226981e+00,3.191963039547675240e+00
4.717787249297077601e+00,3.919180115905385176e+00,3.192037903751892891e+00
3.731547471832756369e+00,4.367145589827584828e+00,1.823768823293839603e+00
2.981573265219349178e+00,4.859338836672550066e+00,1.823440501023029681e+00
2.220407996168533682e+00,5.281850041321968448e+00,1.822880590628064290e+00
1.412468912154841716e+00,5.546501197694977847e+00,1.823400523177187926e+00
5.687154223910272366e-01,5.622781717677211688e+00,1.823980310824366846e+00
-2.595792192732824244e-01,5.600566326438968012e+00,1.823695607614495007e+00
-1.059496052468745564e+00,5.457886975810406938e+00,1.823053320231213581e+00
-1.824994919530399162e+00,5.229751181108523106e+00,1.823136299432554841e+00
-2.538546961393554735e+00,4.884187686982470744e+00,1.823332884645081808e+00
-3.168342012378310368e+00,4.452755106641044236e+00,1.823037702565221796e+00
-3.809618231152206658e+00,3.978017106146753967e+00,1.823137289279495254e+00
-4.414427240571257904e+00,3.421741609168691411e+00,1.823571126267926612e+00
-4.943980419571251339e+00,2.758554134074595598e+00,1.822761664982454510e+00
-5.399983902834896377e+00,2.010108557688644826e+00,1.823800784454138180e+00
-5.719842163813488867e+00,1.172273808993165689e+00,1.824345295249208743e+00
-5.982867111679450289e+00,2.773866491160287273e-01,1.823497116254995110e+00
-6.085531807672296623e+00,-6.701573371179465610e-01,1.823525276627392389e+00
-6.036722164730210949e+00,-1.666034419838617442e+00,1.823453088725001781e+00
-5.855597891204089578e+00,-2.679683412511820517e+00,1.823127288532650603e+00
-5.484357238958056158e+00,-3.660473533923906064e+00,1.823726027167184238e+00
-4.859643264933020568e+00,-4.535543602439662259e+00,1.823977762198824681e+00
-4.209507229065557965e+00,-5.412671779207898659e+00,1.823462815990256392e+00
-3.388936121883717956e+00,-6.134707472651840909e+00,1.823443427759517732e+00
-2.426707685418689753e+00,-6.639859381091860691e+00,1.823482042866629182e+00
-1.370278356401792852e+00,-6.914907223960886640e+00,1.823284275331552795e+00
-2.686498300178419285e-01,-6.988756841990509727e+00,1.822843943595711114e+00
7.968461258241055223e-01,-6.839316457602638621e+00,1.822666843881070253e+00
1.813841124543768224e+00,-6.504026181860185218e+00,1.823092237070707222e+00
2.776377432703441173e+00,-6.016567583176104961e+00,1.823387100065605226e+00
3.603964061707085609e+00,-5.401219297551580034e+00,1.823661832865974608e+00
4.273451979881677687e+00,-4.587866700715089507e+00,1.822831079596895387e+00
4.905897823998012441e+00,-3.754808663296568483e+00,1.822714153666114445e+00
5.394700243571397102e+00,-2.820111141003081912e+00,1.823454555114975006e+00
5.760023943375081501e+00,-1.841854109670938877e+00,1.823256591979437902e+00
5.983951767562880164e+00,-8.176407857450338490e-01,1.822722454972791173e+00
5.967582180679498194e+00,1.802155599720667301e-01,1.823371124475208438e+00
5.849678178304051457e+00,1.173996117604491074e+00,1.822923619894468494e+00
5.543321119233511673e+00,2.135292838865373799e+00,1.822622663424023681e+00
5.081413120596322663e+00,3.017776351540895519e+00,1.823012877164789103e+00
4.520979961465905639e+00,3.832445921303297975e+00,1.823196710112320540e+00
3.543905832706584658e+00,4.171648333795828556e+00,4.547831208266973624e-01
2.826374109881630847e+00,4.668103703342636912e+00,4.553692171780913678e-01
2.090834599697342977e+00,5.086130415964521312e+00,4.552175699532836073e-01
1.329225437195949100e+00,5.368064302199371696e+00,4.549449218060604427e-01
5.253538896424252425e-01,5.483680707488912454e+00,4.563161649634780992e-01
-2.800266314749764174e-01,5.496042114112657195e+00,4.548823291436636662e-01
-1.086866421138489303e+00,5.399181131983618265e+00,4.539890204082069336e-01
-1.835037175815418253e+00,5.168170993532433144e+00,4.551249495533623013e-01
-2.529668443370150843e+00,4.818400024594021502e+00,4.554787307704712962e-01
-3.160445700551647086e+00,4.401036849325594247e+00,4.557747818466270084e-01
-3.784003249953077130e+00,3.937063147638156124e+00,4.555290101380323753e-01
-4.380470220865441355e+00,3.402407457824230264e+00,4.539699923500301604e-01
-4.931986346069873406e+00,2.762258856648663663e+00,4.539565356864846968e-01
-5.427792981694026686e+00,2.029745540797873282e+00,4.552919072814895496e-01
-5.743588337952160394e+00,1.184228060326683041e+00,4.553981691761649908e-01
-5.988499080694770882e+00,2.975854389443387538e-01,4.546279871353847146e-01
-6.094773017631374579e+00,-6.338299774591618085e-01,4.537816585439028438e-01
-6.037584965023800265e+00,-1.610768492076094294e+00,4.546548289754537842e-01
-5.837158778507733459e+00,-2.603228737758480626e+00,4.556348462359440799e-01
-5.489395414138640739e+00,-3.594796045694424347e+00,4.556901914055132563e-01
-4.874689693318927652e+00,-4.411513065371776676e+00,4.554212331885836296e-01
-4.208109456183779074e+00,-5.204235699088872735e+00,4.556966690630444572e-01
-3.398893237162484482e+00,-5.885449578250627312e+00,4.557855064686355262e-01
-2.455421823210462318e+00,-6.360484286326744119e+00,4.551018874531921887e-01
-1.412672284212431961e+00,-6.599649521573231148e+00,4.550107381131490158e-01
-3.468494270332609375e-01,-6.669481891032572385e+00,4.548955436304946698e-01
6.822462068228984933e-01,-6.543714733825972019e+00,4.539319089443742405e-01
1.665131237739156500e+00,-6.249753734667214289e+00,4.539288528407671719e-01
2.574143617195160161e+00,-5.777220023682968275e+00,4.548274832433298887e-01
3.352177943513114933e+00,-5.160788605814301988e+00,4.552101010007923998e-01
4.030343701974037351e+00,-4.433210194740889065e+00,4.546776411478778979e-01
4.632038308735028309e+00,-3.625516764488507793e+00,4.550350620221782494e-01
5.108704712851612761e+00,-2.717127689962139492e+00,4.550647031507414342e-01
5.466274613992341713e+00,-1.767660975971891313e+00,4.547866758727813208e-01
5.642113488205651173e+00,-7.805584592364454011e-01,4.550562281837934320e-01
5.649915372780137446e+00,1.737073289656086983e-01,4.554629775377018186e-01
5.528857439440867161e+00,1.109229148932492137e+00,4.540786940688721907e-01
5.229990106995428434e+00,1.996084727447910323e+00,4.537181312886164886e-01
4.675399532151018889e+00,2.756111207626029902e+00,4.550500682973703803e-01
4.178476897722259054e+00,3.518426024766290183e+00,4.551091479127080675e-01
3.370232001685515844e+00,3.911247166443050371e+00,-9.127265562854296466e-01
2.692710864731233666e+00,4.413966467913390090e+00,-9.131722976394338609e-01
2.003818619766919884e+00,4.823776254634112526e+00,-9.126906743994991356e-01
1.291451889558429489e+00,5.146866162534105449e+00,-9.131688279225160798e-01
5.059982154185596048e-01,5.301486517846496938e+00,-9.138558471980176012e-01
-2.872223365217970725e-01,5.335158407321796581e+00,-9.129006231507956759e-01
-1.076977958294838666e+00,5.299639551247676827e+00,-9.134441383839564388e-01
-1.819243000003479827e+00,5.076229791178825224e+00,-9.133189143814715028e-01
-2.503063081154051961e+00,4.774740976214319588e+00,-9.131098580708896240e-01
-3.155463776367631201e+00,4.397276371885629587e+00,-9.136623890987738417e-01
-3.767562736848745431e+00,3.935983891275886659e+00,-9.124593625311097078e-01
-4.370181327890954037e+00,3.406524863532461200e+00,-9.127614634170586605e-01
-4.902202618344976059e+00,2.768364773215831409e+00,-9.122811519225006993e-01
-5.374765609253635112e+00,2.046021080294361028e+00,-9.128704077287368435e-01
-5.708211767190871200e+00,1.224984265829426766e+00,-9.136912244500556834e-01
-5.933350087955210128e+00,3.561285925431389998e-01,-9.133542755493864185e-01
-5.994610594423473771e+00,-5.461671267638609217e-01,-9.128313711684716836e-01
-5.928786315629213099e+00,-1.503697617823591237e+00,-9.127934837454745320e-01
-5.738428626337006122e+00,-2.451808400772040653e+00,-9.130488293414631418e-01
-5.422195628741769191e+00,-3.432798202746484062e+00,-9.136307373824874567e-01
-4.881798964090326542e+00,-4.249553951631048321e+00,-9.140860954377116876e-01
-4.182766843408320945e+00,-4.932731842227144448e+00,-9.132486915649347115e-01
-3.386287614958336079e+00,-5.571640459660363476e+00,-9.127201993646054667e-01
-2.482385062142250298e+00,-6.008417894152863425e+00,-9.127247145591965705e-01
-1.477283117733659168e+00,-6.204304000174770906e+00,-9.123465346071262250e-01
-4.539110714731144358e-01,-6.261884538129304012e+00,-9.128062569228980738e-01
5.219998649229281584e-01,-6.143451242129393641e+00,-9.130036445786398058e-01
1.460963072772053062e+00,-5.908496911465595858e+00,-9.129408587128118313e-01
2.330557336082477171e+00,-5.464479763508866661e+00,-9.133349409838820154e-01
3.089937319773597313e+00,-4.900832066683454613e+00,-9.136796037657233249e-01
3.753880254464541988e+00,-4.231072636054043379e+00,-9.135604043044651679e-01
4.317828018598460993e+00,-3.460552628455189961e+00,-9.138026633528433251e-01
4.789025885570232788e+00,-2.606448198758133383e+00,-9.134316291134627619e-01
5.141620461462862224e+00,-1.715614385219329074e+00,-9.127819132416705727e-01
5.332278100629816109e+00,-7.764418714721461612e-01,-9.126513313320387955e-01
5.332665176729880052e+00,1.482954251873447871e-01,-9.135449828683732676e-01
5.189858962248872665e+00,1.002369706465257693e+00,-9.133905206481667260e-01
4.822988692278717515e+00,1.806233994196679404e+00,-9.123582206344276191e-01
4.409505066628531367e+00,2.560126535363104416e+00,-9.120357700805037382e-01
3.952781387986440631e+00,3.283639628266403765e+00,-9.121711639665981419e-01
3.196435844927826508e+00,3.622416647012608237e+00,-2.281486471310206543e+00
2.570451228720716408e+00,4.152445284855693863e+00,-2.281155576380933248e+00
1.926229839491141682e+00,4.579297737224366394e+00,-2.281313208270912885e+00
1.228910627908882836e+00,4.905757769928878353e+00,-2.282234197680738763e+00
4.879989622693893248e-01,5.086711890854130225e+00,-2.281221655093768952e+00
-2.480902004239356196e-01,5.155901067566944107e+00,-2.280919776359157325e+00
-1.017956123269320168e+00,5.148690782355922479e+00,-2.281442071733051691e+00
-1.759482248511796243e+00,4.968633738544196099e+00,-2.281634426274156802e+00
-2.461683188288267932e+00,4.737348129007729725e+00,-2.281125200354167326e+00
-3.154876433850217321e+00,4.408100280615690814e+00,-2.281772506944291123e+00
-3.779236776579897761e+00,3.948497269548687072e+00,-2.281870826304979616e+00
-4.378658195009029086e+00,3.430908206802640414e+00,-2.281648538593652020e+00
-4.863900304801774155e+00,2.785279050341378237e+00,-2.281286388462139492e+00
-5.297329582158864625e+00,2.058923735148444401e+00,-2.281245780541793611e+00
-5.566998765864828336e+00,1.251242032431228335e+00,-2.281453683736534011e+00
-5.739768407378321946e+00,4.107329624020040759e-01,-2.281834852698108485e+00
-5.805504985078502322e+00,-4.483651807212969409e-01,-2.282079557440578554e+00
-5.765282689325385235e+00,-1.379607034632179596e+00,-2.281410942782018392e+00
-5.605572062629988750e+00,-2.301774780103217122e+00,-2.280807816225287610e+00
-5.299605832519090676e+00,-3.212909879125852797e+00,-2.281685835302516452e+00
-4.820244355239503342e+00,-4.041601423732213760e+00,-2.281463981267374486e+00
-4.097965171261270356e+00,-4.642152186651982149e+00,-2.280488266835130062e+00
-3.342011686708573404e+00,-5.220906222309886324e+00,-2.281287077939689212e+00
-2.465249602991230748e+00,-5.606967904659795998e+00,-2.282205435477425937e+00
-1.513805058342789778e+00,-5.782745616527104282e+00,-2.281687538278371452e+00
-5.684094518636179094e-01,-5.818960757979294129e+00,-2.281548853856794956e+00
3.445085971896201249e-01,-5.710651228794085377e+00,-2.281939421070008134e+00
1.226477817142481275e+00,-5.475833082581728739e+00,-2.281270393127903695e+00
2.058848995624492861e+00,-5.112974436397675682e+00,-2.280786121573194158e+00
2.791533753800770068e+00,-4.593590847738338923e+00,-2.280915746328259441e+00
3.457767962334720391e+00,-3.997655207589171145e+00,-2.280781766666002408e+00
3.965345291085057511e+00,-3.250117796566664552e+00,-2.281771552755882837e+00
4.416646009861193711e+00,-2.469659285510541924e+00,-2.281817745117979079e+00
4.719693744404111158e+00,-1.620997649884102554e+00,-2.281155424160209666e+00
4.882346448912726622e+00,-7.560858578346667525e-01,-2.281683221026998165e+00
4.859714454619856738e+00,9.885212134652843208e-02,-2.281764152437008697e+00
4.699582953953836295e+00,8.726147480819517188e-01,-2.281273581419529073e+00
4.469763172169585630e+00,1.625061779487546820e+00,-2.281434962496068586e+00
4.130859292549402539e+00,2.351084054092108300e+00,-2.282067800541302649e+00
3.707319209386797265e+00,3.021453133904249633e+00,-2.281923990375179567e+00
2.996359047006406762e+00,3.356543870841715904e+00,-3.650397651032623259e+00
2.454335910545567323e+00,3.895744076473007578e+00,-3.649662656320780574e+00
1.827166945260055853e+00,4.320634355285605466e+00,-3.649782677913484985e+00
1.148268924381299794e+00,4.647082463366023042e+00,-3.650214653008178267e+00
4.505792553892606356e-01,4.870675126897210383e+00,-3.649941576537709231e+00
-2.375346323103487145e-01,4.948174425871647131e+00,-3.649311377181926552e+00
-9.482685712798721855e-01,4.945317075349796809e+00,-3.649582843576366198e+00
-1.665408700281596488e+00,4.797707807284036008e+00,-3.650635273845835638e+00
-2.358591353195328644e+00,4.603083730029965182e+00,-3.649871635434908779e+00
-3.062981283850088055e+00,4.313628759603717278e+00,-3.649219382241757792e+00
-3.696402791312566549e+00,3.888330267575971888e+00,-3.650017494644619109e+00
-4.283899000614639796e+00,3.377628559956848964e+00,-3.649654449842961945e+00
-4.742002001995606619e+00,2.745254829889359982e+00,-3.649313952715077303e+00
-5.137370390264125675e+00,2.030919646706413229e+00,-3.649898306279720561e+00
-5.400159819792121674e+00,1.254333959007538857e+00,-3.650128902152419030e+00
-5.523914447040202624e+00,4.595486004354617515e-01,-3.650432774513853396e+00
-5.575342164856746052e+00,-3.702069420529611743e-01,-3.649971670092364562e+00
-5.540067522838689307e+00,-1.236613393928988724e+00,-3.648630805059552618e+00
-5.386594793686935390e+00,-2.115365484648793704e+00,-3.649181091886636530e+00
-5.047909037347055872e+00,-2.925819881640490561e+00,-3.649458575746516775e+00
-4.564682669256051817e+00,-3.664716017971869633e+00,-3.649890106512196031e+00
-3.935504941259113210e+00,-4.279327112626686080e+00,-3.650473884090457588e+00
-3.247803358430024989e+00,-4.846212486285230270e+00,-3.650019110457348503e+00
-2.396174389107970981e+00,-5.207007335449453933e+00,-3.649461311136427799e+00
-1.523178819321151511e+00,-5.351852567898919055e+00,-3.649108203447769316e+00
-6.463195665234453546e-01,-5.362393270523714506e+00,-3.649218524013889908e+00
1.940240365644942400e-01,-5.236391909826148883e+00,-3.649619817802795652e+00
1.004845564414817538e+00,-5.017175765157716683e+00,-3.649827727202837213e+00
1.761973268511821455e+00,-4.665935618073934421e+00,-3.650323893270309927e+00
2.450696990334816583e+00,-4.197804138107076533e+00,-3.650532479304341660e+00
3.073723661626476478e+00,-3.656282745617028596e+00,-3.649947884980398793e+00
3.544476915822553309e+00,-2.978011899951943153e+00,-3.649210207350886304e+00
3.916470352764932272e+00,-2.250475033410609171e+00,-3.648485884021724690e+00
4.190528124742312066e+00,-1.482502408180218723e+00,-3.649034316939813394e+00
4.344717298853081999e+00,-6.987629565884238003e-01,-3.649501600622822028e+00
4.430322577075266999e+00,8.126817437957523094e-02,-3.649492155047142639e+00
4.365915658380005837e+00,8.154594957735676886e-01,-3.649753731681964375e+00
4.144947136408636545e+00,1.500591605482082258e+00,-3.649363800470034835e+00
3.811935774861410664e+00,2.169417828375450608e+00,-3.649353681649293524e+00
3.439512929871435531e+00,2.778211024963009645e+00,-3.649950269519207868e+00
2.777180511825099174e+00,3.141531320901815860e+00,-5.018753911481532270e+00
2.310345579039966957e+00,3.669440006084387473e+00,-5.018629176129970837e+00
1.714803369756748630e+00,4.072313586514950678e+00,-5.017435371565227342e+00
1.056637045118359097e+00,4.366379129398746173e+00,-5.016502645648258429e+00
4.037972691145457205e-01,4.587748131444872257e+00,-5.017056934347300157e+00
-2.410533892946569723e-01,4.685795641909168197e+00,-5.017523397216701042e+00
-9.006579320856600290e-01,4.662958327360707145e+00,-5.017783183717408058e+00
-1.550502265832744975e+00,4.528797030650055788e+00,-5.017658850228309042e+00
-2.219228801382401972e+00,4.357786835293702588e+00,-5.018166085765418671e+00
-2.884445354201507605e+00,4.113856921593527005e+00,-5.018086770107540673e+00
-3.509897742876935567e+00,3.731395548109562643e+00,-5.017752710686419704e+00
-4.092781018777607471e+00,3.261603773400850059e+00,-5.017777123736431477e+00
-4.536396652011738695e+00,2.662232741321708840e+00,-5.018002296679551222e+00
-4.872818127323665038e+00,1.974221260029037195e+00,-5.017666075962955219e+00
-5.159274458296304822e+00,1.242442779721160795e+00,-5.017405626150333475e+00
-5.305498495973469453e+00,4.804383353511761934e-01,-5.017286477259837341e+00
-5.347280383079972665e+00,-3.161540476124300447e-01,-5.017636958906797950e+00
-5.238404902117069106e+00,-1.108986774079191662e+00,-5.017697716247106143e+00
-5.023293597856282489e+00,-1.857762650267122062e+00,-5.017477959513907848e+00
-4.687487287429402016e+00,-2.597275424832020896e+00,-5.017432859562443781e+00
-4.246821239526999747e+00,-3.286089378850383547e+00,-5.017857594444358860e+00
-3.721316939259611267e+00,-3.924447915588766378e+00,-5.018213268279215100e+00
-3.075192231808461685e+00,-4.455376398640603419e+00,-5.018262331712577407e+00
-2.291728168113403186e+00,-4.802125368971214670e+00,-5.017454103134729060e+00
-1.466449311819228329e+00,-4.920929388353693312e+00,-5.017656641301543985e+00
-6.678462028704152953e-01,-4.897758937062746121e+00,-5.017884930924106257e+00
8.812354806115241246e-02,-4.728500361313525246e+00,-5.017975620519335322e+00
7.835709930221751440e-01,-4.436262874203587003e+00,-5.018118708850665577e+00
1.444541337551074500e+00,-4.089455563942949290e+00,-5.017995082908898397e+00
2.059403390268254253e+00,-3.692454759687135546e+00,-5.017936937733647795e+00
2.687455584107111051e+00,-3.250971145139363472e+00,-5.018259220459826864e+00
3.198101710949257548e+00,-2.706260289301392064e+00,-5.018440442715043304e+00
3.559634565864343347e+00,-2.050800756420895876e+00,-5.018136174931365545e+00
3.844617815357940671e+00,-1.343297769161187372e+00,-5.017324673719732786e+00
4.014012777789176312e+00,-6.145628882934095483e-01,-5.017165340769771831e+00
4.095004159135142707e+00,9.845359356380051219e-02,-5.017359839942632682e+00
4.023947552823762486e+00,7.825190649866859971e-01,-5.017977327544455690e+00
