1.319472663251085898e+01,-4.602746061954963608e+00,9.290484647899445392e+00
1.299874269795049919e+01,-2.259071097269063522e+00,9.291314421151115610e+00
1.235896082847881416e+01,-1.536359551169486082e-01,9.290930465048949927e+00
1.141198624934452077e+01,1.615940787355560460e+00,9.290573874100092056e+00
1.022972620687771439e+01,3.004825144659450054e+00,9.290958135720275735e+00
9.055427049442707599e+00,4.134988742014162000e+00,9.290763541575969953e+00
7.927132229646817407e+00,5.046030404279790993e+00,9.290466702966243773e+00
6.817783285742931909e+00,5.736442835636983872e+00,9.290336932020828442e+00
5.564259905341053525e+00,6.025101690606954108e+00,7.237022442290858670e+00
4.652052051079986761e+00,6.448651874794538053e+00,7.238365121826063842e+00
3.812372730769627793e+00,6.789812491958510776e+00,7.238463281334123423e+00
2.983331522224200505e+00,7.088657021752089449e+00,7.237782120717119128e+00
2.199712605682416111e+00,7.386627105052657072e+00,7.238305877699593438e+00
1.355388878877633596e+00,7.756706816129337767e+00,7.238842704010401086e+00
3.381451960716761462e-01,8.115500152422805868e+00,7.237347069293255331e+00
-7.757090045038621540e-01,8.375636280836243230e+00,7.237306440898668036e+00
-2.044108169867639546e+00,8.558218099101130960e+00,7.237689338051945143e+00
-3.477615166639860700e+00,8.615492423803164712e+00,7.237266797861727774e+00
-5.094750478237850544e+00,8.491210471944322435e+00,7.237431051041667729e+00
-6.777151664585027824e+00,8.025164663652843089e+00,7.237583822312672943e+00
-8.545416469508818835e+00,7.222280633095801150e+00,7.236809977470773703e+00
-1.026961498558926777e+01,6.069808446957476455e+00,7.237024912256112330e+00
-1.177794492502860813e+01,4.472710190347038761e+00,7.237547180085928566e+00
-1.304025731757672268e+01,2.495458191938086046e+00,7.237917689787517261e+00
-1.383274362720043982e+01,2.063939939950025781e-01,7.238625647861034018e+00
-1.403297105341803253e+01,-2.187320517941448550e+00,7.237707094017487464e+00
-1.376330322809775630e+01,-4.672944219167297852e+00,7.237166501885455183e+00
-1.302652258822899967e+01,-7.247964540986004955e+00,7.238200067195315057e+00
-1.181196711418980883e+01,-9.685258075033559066e+00,7.238353451482986145e+00
-1.006533882122345958e+01,-1.186047684192802798e+01,7.237665027814547791e+00
-7.891040818882737007e+00,-1.371519764033265965e+01,7.237873882680371018e+00
-5.350815765290967363e+00,-1.514913277775312039e+01,7.237285487790283689e+00
-2.532889363551916517e+00,-1.601769686815831761e+01,7.236764822705967326e+00
4.022444948814978827e-01,-1.621942788303800853e+01,7.237491132908234093e+00
3.269005324883852648e+00,-1.576028508795770122e+01,7.236906769838571840e+00
5.931295631969192073e+00,-1.472517993909267453e+01,7.237918984360781849e+00
8.255474157942998659e+00,-1.321650866698067617e+01,7.238025397083994505e+00
1.015713946101171139e+01,-1.136100212610105409e+01,7.236877122018269048e+00
1.155249344983355542e+01,-9.196777105553927356e+00,7.237057679197604898e+00
1.234703031772180282e+01,-6.797171464333719548e+00,7.238426701261255758e+00
1.263715530119445773e+01,-4.381827907057099125e+00,7.237379128231776981e+00
1.240608593573759322e+01,-2.120842741452431568e+00,7.237016268502840077e+00
1.174473506983263604e+01,-1.179742552959921476e-01,7.238638323597164970e+00
1.083809725947928371e+01,1.576853458558137078e+00,7.238029195512301506e+00
9.722093693460504227e+00,2.897392381161276287e+00,7.237219211641964911e+00
8.621752289011491044e+00,3.979287905258510172e+00,7.238179556860557362e+00
7.578281753454539249e+00,4.841713879178904278e+00,7.238297103089165851e+00
6.538627024503302465e+00,5.513465111101711891e+00,7.237238706516643916e+00
5.405787381947458670e+00,5.874739326464808009e+00,5.184803586984483736e+00
4.563382796887366588e+00,6.326042135060403027e+00,5.184299420651937496e+00
3.781178365228437421e+00,6.703221580359768339e+00,5.184357781426517597e+00
3.019168535861712854e+00,7.047549470150880069e+00,5.183953525996467526e+00
2.224449819936439976e+00,7.378799296261804308e+00,5.184438238128274534e+00
1.355536216026781204e+00,7.808550405745327438e+00,5.184940661018077712e+00
2.779146029713135402e-01,8.223246051763119624e+00,5.183748280489661298e+00
-8.591519921517574154e-01,8.464854720627787543e+00,5.183893296310927212e+00
-2.127816037675664962e+00,8.634708565213905729e+00,5.184417313559772644e+00
-3.573225491826968359e+00,8.687574192470586709e+00,5.184316639445759378e+00
-5.197193094002362734e+00,8.535953193950465590e+00,5.184563706075762113e+00
-6.885204551166210329e+00,8.078398262027707943e+00,5.184437380553752028e+00
-8.592421922110855093e+00,7.271976941601781874e+00,5.184455092144210298e+00
-1.027699937096284444e+01,6.070328478640828251e+00,5.184807350528007674e+00
-1.174050410959011614e+01,4.490364756873219676e+00,5.183948741791599701e+00
-1.298925496886249142e+01,2.527831645222684109e+00,5.183909631866578493e+00
-1.373820534984786690e+01,2.874836740338790886e-01,5.185085434672028093e+00
-1.392529301320819712e+01,-2.080731779396339576e+00,5.183701019744813010e+00
-1.363732127607497091e+01,-4.551402291783182008e+00,5.183696256088948573e+00
-1.286669573112116360e+01,-7.057916756607525599e+00,5.185193501706407027e+00
-1.162155843585880888e+01,-9.399137432804726799e+00,5.184959624652965893e+00
-9.909127373946482464e+00,-1.151938667376652070e+01,5.184341991807480454e+00
-7.765112344484563778e+00,-1.333143023266042348e+01,5.183672128412497138e+00
-5.293325519634375809e+00,-1.470296599946709293e+01,5.184143993106365755e+00
-2.521955013153629466e+00,-1.550556592628055341e+01,5.185030030512116639e+00
3.006337970336127041e-01,-1.567366478859464785e+01,5.184546385215479170e+00
3.110407767408983837e+00,-1.523713625726558263e+01,5.184071106827758513e+00
5.719262816484099510e+00,-1.421964150131934446e+01,5.184702807446582185e+00
7.951686895615399209e+00,-1.274983936961215747e+01,5.185013427681102627e+00
9.761075581033768600e+00,-1.093135510520218290e+01,5.184873340513963313e+00
1.108873830141576278e+01,-8.791440138590159492e+00,5.184982851660424608e+00
1.179425233133124706e+01,-6.462162247565590434e+00,5.184045339406462283e+00
1.204734277439551704e+01,-4.157961887174326243e+00,5.184966559593062740e+00
1.180059563297863612e+01,-1.994857710090707004e+00,5.184592413321754023e+00
1.113855176743168585e+01,-6.778443071439665957e-02,5.183145329077670560e+00
1.028484860004047619e+01,1.528631752301977231e+00,5.183883547609132059e+00
9.225137164864415595e+00,2.823991208569306632e+00,5.183470760286054357e+00
8.223003136560175008e+00,3.820987759735994693e+00,5.183860369195485873e+00
7.243661287917359637e+00,4.685542889834855451e+00,5.185163555848490091e+00
6.291877718035529199e+00,5.340725053583774695e+00,5.185314081791840835e+00
5.314579782053311163e+00,5.832315673549617330e+00,3.131226369941334298e+00
4.507321973567061768e+00,6.316477872131146754e+00,3.130246567570903693e+00
3.773403803024176106e+00,6.730871396740509383e+00,3.131001864568639270e+00
3.014571406316471247e+00,7.154532552841467385e+00,3.132176802486617451e+00
2.207804017594186430e+00,7.536093032491889332e+00,3.131078660591815499e+00
1.294151428109885371e+00,7.931424310831232560e+00,3.131038285421793077e+00
1.982758874315866393e-01,8.362485423411380125e+00,3.131749574881047771e+00
-9.591436101585357754e-01,8.615656515403369298e+00,3.130905859801752289e+00
-2.205190067671671361e+00,8.748344028792075733e+00,3.129619194909338820e+00
-3.630182380261418817e+00,8.788991775636540993e+00,3.130226269033543396e+00
-5.243394406793085771e+00,8.595379395105076981e+00,3.132303759405780319e+00
-6.940911283069779003e+00,8.117501817176183465e+00,3.131443829323664829e+00
-8.596055791603824048e+00,7.274408705293908817e+00,3.130633262624320068e+00
-1.019419075375592598e+01,6.097734711386406659e+00,3.131170820891275408e+00
-1.164264846449773749e+01,4.497380948259001698e+00,3.131586976118879040e+00
-1.281202215188668347e+01,2.548723615179310453e+00,3.131260573638865008e+00
-1.349755329855232944e+01,3.705487413377743788e-01,3.131152678048370497e+00
-1.367129249406404234e+01,-1.952611799606862153e+00,3.130708504673574755e+00
-1.334584478640784866e+01,-4.388772715614368991e+00,3.131005796926785933e+00
-1.255411792600115994e+01,-6.797655033369622402e+00,3.131089723718922357e+00
-1.133203539525478476e+01,-9.045901350619413250e+00,3.130995248087236060e+00
-9.649306913160289767e+00,-1.107792914541186846e+01,3.131692250155872603e+00
-7.576928146443953516e+00,-1.282900363217117068e+01,3.130940409048383888e+00
-5.149294984334324532e+00,-1.414039460205888510e+01,3.130975041544859394e+00
-2.506101930889925722e+00,-1.487039650225830201e+01,3.131543605552483456e+00
2.185901371163225804e-01,-1.501442566897954123e+01,3.131586487215253900e+00
2.932134869275052402e+00,-1.459866552220167435e+01,3.130598754522647464e+00
5.453556454367073592e+00,-1.363065911741104586e+01,3.129792204292075830e+00
7.615295943235798504e+00,-1.218802030116701296e+01,3.130129222881353535e+00
9.335853194346348971e+00,-1.040911825010462088e+01,3.130306794500699485e+00
1.056739248902122164e+01,-8.346000246308003412e+00,3.130057522194353847e+00
1.121512324364769242e+01,-6.094627543639559164e+00,3.131327831322986643e+00
1.144303233618786031e+01,-3.909220077306865271e+00,3.131720635770018024e+00
1.122217326588484099e+01,-1.852033794529295285e+00,3.131266496015190359e+00
1.057717765263590515e+01,-1.657689895744041131e-02,3.130959107355972826e+00
9.756680844509681094e+00,1.510511604857534218e+00,3.131031367548032573e+00
8.811132854473200382e+00,2.768671029923003957e+00,3.131120588499362256e+00
7.873546639073607523e+00,3.755112412753015327e+00,3.131424828744314048e+00
6.993152665584524641e+00,4.570403557433288633e+00,3.132013608527593806e+00
6.145732752083350903e+00,5.249827443030328666e+00,3.131911844229859021e+00
5.259602390562250207e+00,5.856960595995229113e+00,1.077868339817412258e+00
4.480111241681552059e+00,6.384188791804168872e+00,1.077550896357466925e+00
3.727373312329912647e+00,6.865558380625172319e+00,1.079081710715068532e+00
2.976732377823463338e+00,7.333196445745022274e+00,1.078492276637816438e+00
2.146716457663364608e+00,7.782835015499484754e+00,1.077710570782506982e+00
1.213263864685534710e+00,8.157119463902505530e+00,1.078009333482101928e+00
1.388110134928219885e-01,8.549688617917059474e+00,1.077845713303651864e+00
-1.038081505069767818e+00,8.797273440698619495e+00,1.078036150793993286e+00
-2.294930433061356911e+00,8.893908646759836500e+00,1.077668430712131808e+00
-3.686692170651220568e+00,8.879887083001831272e+00,1.077252334126772348e+00
-5.277696932697596210e+00,8.630245140349591892e+00,1.077255513910159612e+00
-6.931938611342292944e+00,8.137168493009472314e+00,1.077630183637073191e+00
-8.535762726657624810e+00,7.289735904384897047e+00,1.077704301364207584e+00
-1.005603075750093645e+01,6.088197508189248097e+00,1.078002269163696569e+00
-1.144036141074152724e+01,4.499192693665088782e+00,1.078072301713969283e+00
-1.251095531643112757e+01,2.598092613098243575e+00,1.077147768042602927e+00
-1.313699775198882236e+01,4.474079838786677588e-01,1.077902411123830673e+00
-1.328357311503103411e+01,-1.837595196754949090e+00,1.078184327824364130e+00
-1.292516924043611937e+01,-4.197982681702785435e+00,1.077701568023130774e+00
-1.211768117204902140e+01,-6.488539345983356910e+00,1.077624265719260288e+00
-1.095206103522419028e+01,-8.619140230562990723e+00,1.077539197460625653e+00
-9.313563883532060217e+00,-1.059183080782068487e+01,1.077216866033334108e+00
-7.315682291171154539e+00,-1.224402435589323801e+01,1.078254551576893761e+00
-4.976838321896087436e+00,-1.346145322181361159e+01,1.077740125174775354e+00
-2.437862661171000589e+00,-1.414428135289922928e+01,1.077265338250665172e+00
1.545976930443209718e-01,-1.424630221814762798e+01,1.078675150993501974e+00
2.762178485746750844e+00,-1.384733390295036237e+01,1.077899887626830422e+00
5.171465461117227491e+00,-1.294143093990572524e+01,1.076302062932259496e+00
7.237084197979000599e+00,-1.156774199081158550e+01,1.077347758657686061e+00
8.869004049529863210e+00,-9.839419424309689077e+00,1.078671902572125418e+00
1.003199477843160281e+01,-7.829692241543308562e+00,1.077381707072167183e+00
1.065412617746337531e+01,-5.690499346043583984e+00,1.077556677573627386e+00
1.087064598491651779e+01,-3.635312552744584202e+00,1.078140973442389905e+00
1.067342169558833476e+01,-1.684417991386235380e+00,1.076760229019914306e+00
1.008807284652118597e+01,5.366052404068666348e-02,1.076505104616339636e+00
9.326108815483916459e+00,1.509498612893418024e+00,1.078437301081104360e+00
8.483353850324231615e+00,2.740502289846230344e+00,1.077982402059048272e+00
7.610762904566972686e+00,3.697871437111170057e+00,1.077206273991116348e+00
6.793319525487240718e+00,4.511753075669372670e+00,1.077555650228281925e+00
6.019821581795582688e+00,5.234642887343548878e+00,1.078058693755086672e+00
5.217891604031176911e+00,5.918002467846054770e+00,-9.740964564521270574e-01
4.473214586829421080e+00,6.489513972626965277e+00,-9.740469906829638536e-01
3.723928776544681796e+00,7.028845548070244753e+00,-9.740123406304367348e-01
2.946016784392082144e+00,7.562813325179349455e+00,-9.753927542396211292e-01
2.088133845558951318e+00,8.067665754795333655e+00,-9.761263049734496544e-01
1.102428731339343715e+00,8.440311041803770564e+00,-9.739888017784362750e-01
4.568705338213518985e-02,8.756897989934934401e+00,-9.744589007823106774e-01
-1.122446606486913412e+00,8.964783886669826174e+00,-9.753303082850641736e-01
-2.372074869386542328e+00,9.032456601672469887e+00,-9.749223866136292882e-01
-3.738834824279703817e+00,8.937432464649985420e+00,-9.749044564795916745e-01
-5.247926618637258400e+00,8.631253640704517949e+00,-9.757963682314592102e-01
-6.850398987903470349e+00,8.104240749991898696e+00,-9.752441132909915877e-01
-8.405909363496160580e+00,7.235136631890004111e+00,-9.758909380157517743e-01
-9.853274739047931163e+00,6.027407813365364575e+00,-9.761058501516225450e-01
-1.114915703995593077e+01,4.458375011981583036e+00,-9.747561288458377327e-01
-1.212765468292180593e+01,2.607005830455314754e+00,-9.752302515870515665e-01
-1.266144946199486654e+01,5.005648451781721242e-01,-9.757256143242677426e-01
-1.276932611795308148e+01,-1.717792347811583964e+00,-9.754762938394715421e-01
-1.240301816383793465e+01,-3.960909386338836491e+00,-9.753858965382430357e-01
-1.159798288706545932e+01,-6.125054311500865545e+00,-9.753024063368705976e-01
-1.045998725205888569e+01,-8.147747558928358558e+00,-9.750641162263092854e-01
-8.898965091534606131e+00,-1.004145527588769937e+01,-9.759011042471776864e-01
-6.955454865925497110e+00,-1.155702746184494245e+01,-9.762744606628024346e-01
-4.741907515023537023e+00,-1.265984342426030551e+01,-9.758243115522220457e-01
-2.343765412283162597e+00,-1.328420859423726696e+01,-9.755640097109814501e-01
1.575884137244267791e-01,-1.336776608326264615e+01,-9.760790475247278497e-01
2.567469083725243628e+00,-1.297715727411209485e+01,-9.764123107481078589e-01
4.859860187670992815e+00,-1.213980449888306978e+01,-9.761051528584137049e-01
6.821703494771851339e+00,-1.085073964119990464e+01,-9.748273992968815582e-01
8.379078216078561070e+00,-9.185481671054176900e+00,-9.746709031170813775e-01
9.478148575511328389e+00,-7.286621122073911216e+00,-9.752255597796738451e-01
1.011760414489990190e+01,-5.291069289323893088e+00,-9.741913822410681600e-01
1.034729366715089149e+01,-3.345451808484491085e+00,-9.743459377480448991e-01
1.018045119402844101e+01,-1.508387183086862704e+00,-9.750402726016971222e-01
9.681804151633745192e+00,1.520389283425613858e-01,-9.747637755220945888e-01
9.000926874039530290e+00,1.551205120575689378e+00,-9.750415041439035591e-01
8.242588746075815820e+00,2.768765692627985331e+00,-9.766221698698965836e-01
7.428228949939406967e+00,3.708805367881437665e+00,-9.761676280495842351e-01
6.659840821616676010e+00,4.503540595817661085e+00,-9.749805361687914340e-01
5.935283999829252366e+00,5.251850613667517820e+00,-9.743869494393242459e-01
5.194610905839962101e+00,6.003721330567212355e+00,-3.028908592533015476e+00
4.480644936823389379e+00,6.617821782384083029e+00,-3.027804013627453994e+00
3.712351599187752260e+00,7.227441277961569099e+00,-3.027913618154237430e+00
2.908916698140306067e+00,7.811210006466266620e+00,-3.028329267407916525e+00
2.012865980343727657e+00,8.355009386732048071e+00,-3.028617443403022413e+00
9.944321336447113913e-01,8.686829388612187230e+00,-3.028905555115460224e+00
-5.107241775128401606e-02,8.939325421532307914e+00,-3.028514577405945207e+00
-1.211826500534559869e+00,9.099011851275280449e+00,-3.029352458026452144e+00
-2.463207696822170334e+00,9.089392458440903155e+00,-3.029869449417481153e+00
-3.755296332952375415e+00,8.925321233774308638e+00,-3.029033613673333569e+00
-5.209415885100914245e+00,8.559067082347146638e+00,-3.028927193507554794e+00
-6.715638462770238348e+00,7.990989054030109173e+00,-3.028734194265473523e+00
-8.193214944444095593e+00,7.122357246972834233e+00,-3.027854157541195246e+00
-9.565792048784235391e+00,5.909929776680661107e+00,-3.028268220803551181e+00
-1.076212920757296487e+01,4.364907794231448257e+00,-3.029360083332647058e+00
-1.163186069920976706e+01,2.589030536628631474e+00,-3.028728540527564572e+00
-1.208730407462325118e+01,5.687391678875501899e-01,-3.029371558409831522e+00
-1.215422413404870383e+01,-1.566206459867125256e+00,-3.029553850956858696e+00
-1.179053973799552502e+01,-3.665162037707984766e+00,-3.028695581803668713e+00
-1.100231930532751790e+01,-5.677816397529693582e+00,-3.028595481500128361e+00
-9.888217392882889811e+00,-7.598637581596726420e+00,-3.029142942989236253e+00
-8.403380027024624610e+00,-9.349709365737602695e+00,-3.029312506282727302e+00
-6.553590592558889760e+00,-1.074367972374032654e+01,-3.027721025285954326e+00
-4.466596983243343644e+00,-1.173028109761598969e+01,-3.028142754583353913e+00
-2.211099453657449310e+00,-1.229596001408186545e+01,-3.028774384325704894e+00
9.797287903673512766e-02,-1.237000246521724733e+01,-3.027690653000302934e+00
2.341399790482722398e+00,-1.199333138372772289e+01,-3.028973598951314905e+00
4.484064732517964558e+00,-1.123002741147451644e+01,-3.028646622133980504e+00
6.354955993023912342e+00,-1.002890518869975445e+01,-3.028521269169658581e+00
7.832230483387352393e+00,-8.469044719016872946e+00,-3.028496192991307012e+00
8.908398307747427580e+00,-6.715239971965794474e+00,-3.028260879865992461e+00
9.592254071289186612e+00,-4.891930222021565910e+00,-3.028972129407768943e+00
9.842923109033606011e+00,-3.051120659738403518e+00,-3.028059046639075547e+00
9.734115741801867117e+00,-1.319506589992378576e+00,-3.027326472314276540e+00
9.336884317387184495e+00,2.495075359793286207e-01,-3.028388709723786931e+00
8.750372038968407651e+00,1.608458701134965585e+00,-3.028691446045864932e+00
8.061732446355062365e+00,2.809757760356600187e+00,-3.028322646354703718e+00
7.308195280564803831e+00,3.740570938585725536e+00,-3.028151645213562837e+00
6.572301638127443724e+00,4.553356111404347040e+00,-3.028463269891064069e+00
5.892205428123858724e+00,5.313032845559709116e+00,-3.029124980564818159e+00
5.177243865451959692e+00,6.045222035438334807e+00,-5.081401661973598216e+00
4.479035354731063734e+00,6.699670024374695387e+00,-5.081928741403190841e+00
3.699798003072386265e+00,7.372857723086180926e+00,-5.081548151527038648e+00
2.861050715387665644e+00,8.004878310810692454e+00,-5.081229437351002964e+00
1.935547120872953775e+00,8.551314724879766516e+00,-5.080504983906008576e+00
8.836748029497610846e-01,8.831003759680839948e+00,-5.080101735033117905e+00
-1.582063191179152728e-01,9.008097316202764659e+00,-5.081474380669824598e+00
-1.300063563892680962e+00,9.131985124131087872e+00,-5.082066690682935040e+00
-2.523212579267847921e+00,9.035117342470412538e+00,-5.082002479054786193e+00
-3.779573537085050283e+00,8.812251017409046483e+00,-5.081046747270412389e+00
-5.138142292525607502e+00,8.413184412787293454e+00,-5.081282098492387433e+00
-6.533115251699831205e+00,7.801830251624712886e+00,-5.081448975005359081e+00
-7.908923286896540006e+00,6.915674518209378618e+00,-5.081632553728407942e+00
-9.167819651525412894e+00,5.727254458857734321e+00,-5.082254829468123347e+00
-1.024329824033460312e+01,4.247418093255538096e+00,-5.081499924826501591e+00
-1.101974186338412309e+01,2.557888972094569002e+00,-5.081176111806687601e+00
-1.138705434666691119e+01,6.256902500497734110e-01,-5.082266906508251303e+00
-1.142931424831661325e+01,-1.361513475776139792e+00,-5.081953252079272509e+00
-1.104623073190399651e+01,-3.326159401438294694e+00,-5.081792355052023424e+00
-1.027411701104773556e+01,-5.192592611392259805e+00,-5.082394339903191671e+00
-9.192659428193289628e+00,-6.941351550853456231e+00,-5.081772080523128565e+00
-7.787966798537226509e+00,-8.504472955487621277e+00,-5.082070945511173221e+00
-6.089815064978421510e+00,-9.757343525129581252e+00,-5.082333012056083454e+00
-4.180140491098864430e+00,-1.065579755847128673e+01,-5.081448419031131536e+00
-2.113039127050858834e+00,-1.117191530789702902e+01,-5.081431255218342713e+00
2.596654303032286393e-02,-1.123972464939297389e+01,-5.081833944590534280e+00
2.101296193184271743e+00,-1.089014164180474786e+01,-5.082505995970685753e+00
4.059645992352145072e+00,-1.019130120205611512e+01,-5.082226014958899363e+00
5.796379037216217611e+00,-9.121237067239345464e+00,-5.081358618503152513e+00
7.189809204130879650e+00,-7.700400898586788223e+00,-5.081434655662364186e+00
8.248998796137637868e+00,-6.134052569243560349e+00,-5.081989959776431753e+00
8.991894262303446794e+00,-4.476509699135281295e+00,-5.081625824427487004e+00
9.262298972564645183e+00,-2.774179851189590096e+00,-5.082204615472560860e+00
9.214391319536538560e+00,-1.141800408536134182e+00,-5.082386075152969696e+00
8.934432932036553865e+00,3.299527299294595650e-01,-5.082266735843636418e+00
8.443191680759738915e+00,1.646582442439470162e+00,-5.081837116412415867e+00
7.841292129112273912e+00,2.800701355009687976e+00,-5.080779324228243077e+00
7.145953568529364475e+00,3.751761744978703739e+00,-5.080985794715097370e+00
6.483482832328874679e+00,4.579742384448440617e+00,-5.081462028549855070e+00
5.831624526724719537e+00,5.351039433635405906e+00,-5.081245482325766893e+00
5.052008111419917569e+00,6.042337503696151302e+00,-7.134308545288261527e+00
4.357126334390048150e+00,6.739449263483059838e+00,-7.135453559099718568e+00
3.586141224179236087e+00,7.427978597120025839e+00,-7.134815775943994076e+00
2.729465062203917824e+00,8.051251179719312034e+00,-7.133851431470504600e+00
1.797872374874707191e+00,8.585496720791679692e+00,-7.133976774517289066e+00
7.495327724242971668e-01,8.836245965087758947e+00,-7.133901526469444754e+00
-3.162839480215485777e-01,8.965408223022887313e+00,-7.134619538457606325e+00
-1.420764563942774394e+00,9.029837064981483863e+00,-7.134944712399310163e+00
-2.595084713571979229e+00,8.880784241842768267e+00,-7.134734677975144379e+00
-3.789130225108424010e+00,8.593086069463831578e+00,-7.134812819176180376e+00
-5.043355178832507946e+00,8.164521704673589397e+00,-7.135330028853928752e+00
-6.307132400596133337e+00,7.508081052881473205e+00,-7.134808177443900945e+00
-7.570978261905811024e+00,6.623304979577564922e+00,-7.135297019692697695e+00
-8.679978537002591921e+00,5.457642607561851378e+00,-7.135064937698555099e+00
-9.594979305278682702e+00,4.065036353369015920e+00,-7.134045977865103083e+00
-1.025801631050705964e+01,2.492996410757504222e+00,-7.135124866227584128e+00
-1.054386364648291519e+01,7.346707054502505940e-01,-7.136153967530994180e+00
-1.056052891043593789e+01,-1.108022041539167946e+00,-7.134626205370576457e+00
-1.017397032179892769e+01,-2.901040271837723949e+00,-7.133554032869014350e+00
-9.439916974735121258e+00,-4.593873479485719002e+00,-7.134446368787884296e+00
-8.399663350041365106e+00,-6.167531073014798970e+00,-7.134695013941303898e+00
-7.090058183708432438e+00,-7.509226006211807913e+00,-7.135663054745299938e+00
-5.557387713438092014e+00,-8.634411820411184380e+00,-7.134921422187720630e+00
-3.850417273043729161e+00,-9.463293623678714184e+00,-7.134473177621029727e+00
-1.987417122178977591e+00,-9.916560526479603510e+00,-7.135223933501120719e+00
-8.635848127797177143e-02,-1.000985666425348342e+01,-7.135051828273594410e+00
1.811297289456150761e+00,-9.695910630157477783e+00,-7.135040653241726538e+00
3.592039621308597219e+00,-9.046305014226044605e+00,-7.135189292207114065e+00
5.185493225637164194e+00,-8.099898920427520466e+00,-7.134843805285219887e+00
6.482150922206526111e+00,-6.873175184735026200e+00,-7.134339212023298238e+00
7.526681906081542195e+00,-5.508544760015203323e+00,-7.134336548222921515e+00
8.240048667109466152e+00,-4.025643405943066355e+00,-7.135122548964715428e+00
8.517108378563191806e+00,-2.454688248832874287e+00,-7.135137126362603333e+00
8.525600845350943757e+00,-9.597684290788117689e-01,-7.134614558130697226e+00
8.355904106847384938e+00,4.227782059209230781e-01,-7.134881954411307348e+00
7.974788448374130034e+00,1.655829272479762970e+00,-7.135678111403077395e+00
7.471509397527759333e+00,2.776489525478829989e+00,-7.134711161285068215e+00
6.870695744980101161e+00,3.720450087903973468e+00,-7.134312873823254186e+00
6.273221108225758513e+00,4.547602582955736494e+00,-7.134644225044165289e+00
5.700934070676675347e+00,5.305899210507777575e+00,-7.134292517887176110e+00
4.828695879434680371e+00,6.022776341669118239e+00,-9.188197193257751749e+00
4.170379482522528214e+00,6.733142090805336544e+00,-9.187239017179795297e+00
3.405308226531435611e+00,7.397092895610653862e+00,-9.188282338221293699e+00
2.549851834345718160e+00,7.960605007975487979e+00,-9.189428992920973371e+00
1.641695008917562593e+00,8.457732822559272279e+00,-9.188057647651968196e+00
6.172381760608991463e-01,8.711829484769321397e+00,-9.188074606673680478e+00
-4.300994159791199367e-01,8.809628286367006567e+00,-9.188051997615156452e+00
-1.516803415805796362e+00,8.835801866948498784e+00,-9.187419971903874938e+00
-2.660569145449009909e+00,8.650826991682793121e+00,-9.187245546074626290e+00
-3.797215978714195028e+00,8.322379546974984166e+00,-9.187967789929478712e+00
-4.954411906997581383e+00,7.841720961624076836e+00,-9.188486750933213543e+00
-6.065609526285943964e+00,7.137370849850607435e+00,-9.189013831169360103e+00
-7.176660839265074365e+00,6.243304821163916607e+00,-9.188559202482920796e+00
-8.095197271317147170e+00,5.127480890914970502e+00,-9.187924473544958559e+00
-8.833968459015745012e+00,3.839594831705840150e+00,-9.188197947242791486e+00
-9.334764485899368580e+00,2.399749613483876054e+00,-9.188659636410992704e+00
-9.547797491719839158e+00,8.561396991944066892e-01,-9.188399672613323688e+00
-9.539378825289723807e+00,-7.934425178538480061e-01,-9.188066366428019549e+00
-9.164622850331719306e+00,-2.393760623591933978e+00,-9.189068762466707341e+00
-8.493121546020184098e+00,-3.899699053503168145e+00,-9.188789941615050694e+00
-7.516322155995299070e+00,-5.293940316163999960e+00,-9.187469100280154066e+00
-6.333784931526501794e+00,-6.413136130767544962e+00,-9.188259668476531417e+00
-5.000349984725725783e+00,-7.419543497156277034e+00,-9.188485684072698945e+00
-3.491368353560805105e+00,-8.168361085277389577e+00,-9.188621484601238620e+00
-1.848763516420519171e+00,-8.570034169821283854e+00,-9.187946913857009790e+00
-1.436821240419285661e-01,-8.660342459878952681e+00,-9.187503949499481237e+00
1.525984894440018280e+00,-8.414600632188621532e+00,-9.188177789793606109e+00
3.109378416868009420e+00,-7.818681270360514191e+00,-9.188276625287565835e+00
4.534301539536669701e+00,-7.011197931780332127e+00,-9.188014884700724139e+00
5.734188732853695569e+00,-5.997925915102519490e+00,-9.187751715744266079e+00
6.717561116821388012e+00,-4.823925299205368056e+00,-9.187722042629900443e+00
7.391229504584162058e+00,-3.514792222702875613e+00,-9.187484147065498874e+00
7.657995919415128583e+00,-2.104721867220349818e+00,-9.187318118836996561e+00
7.739461872393319730e+00,-7.599731303104413360e-01,-9.187957734139148513e+00
7.639443203192904264e+00,5.103298123673840614e-01,-9.188334657783681081e+00
7.359760446927836597e+00,1.660402808950251607e+00,-9.187693162691003224e+00
6.981495073476390090e+00,2.724917339708418318e+00,-9.188177312960025489e+00
6.510961115763543638e+00,3.635201841710458126e+00,-9.188200849899834211e+00
5.979525562979125297e+00,4.483164631909406950e+00,-9.188153351741355834e+00
5.420634362481163926e+00,5.270840075251149948e+00,-9.188451047457723675e+00
4.597770114357459192e+00,5.960406776775441173e+00,-1.124123554631220756e+01
3.959368973124038238e+00,6.648659632903446415e+00,-1.124150829104163130e+01
3.206468187742736120e+00,7.261755006459346795e+00,-1.124029421967014564e+01
2.350884622190776874e+00,7.757302579001031262e+00,-1.124016735140335044e+01
1.466436716592788514e+00,8.153288180824558751e+00,-1.124045692055349122e+01
5.001503138084719691e-01,8.419509177095468644e+00,-1.124094382964357663e+01
-5.341799930412932662e-01,8.508106175617081490e+00,-1.124166884337418182e+01
-1.589018303884574657e+00,8.496506962314239075e+00,-1.124215686604808084e+01
-2.693855691675382857e+00,8.313588381650967918e+00,-1.124177790058180548e+01
-3.788476610046080939e+00,7.963997444465720221e+00,-1.124075174060075888e+01
-4.809801721931800778e+00,7.438185430584324465e+00,-1.124100214617405946e+01
-5.760471364421563933e+00,6.705552580531425555e+00,-1.124125690705573888e+01
-6.695470072944048390e+00,5.829866605123850576e+00,-1.124104339947282405e+01
-7.418093441412444200e+00,4.751627453154437575e+00,-1.124110169994435182e+01
-7.975964574556971165e+00,3.585546042392917521e+00,-1.124135224115787324e+01
-8.302538146562660870e+00,2.312561271352114645e+00,-1.124185913718863539e+01
-8.441963797737358277e+00,9.958591057188177498e-01,-1.124173398732242291e+01
-8.398825841536465830e+00,-4.362873249618264282e-01,-1.124180305719563222e+01
-8.053394690079304752e+00,-1.838258707022534244e+00,-1.124164897780645944e+01
-7.454327885386828001e+00,-3.152271582643994208e+00,-1.124119723684478878e+01
-6.573381996035232433e+00,-4.299271812231108214e+00,-1.124186629827061701e+01
-5.541323984072038300e+00,-5.250585394305290698e+00,-1.124188942593367102e+01
-4.395333969039718625e+00,-6.119026531774110822e+00,-1.124132577811155898e+01
-3.097443505588892698e+00,-6.786360849563121356e+00,-1.124136747753290599e+01
-1.689912360125455759e+00,-7.151919763392363016e+00,-1.124176868477008107e+01
-2.172475113536755376e-01,-7.239543185874288689e+00,-1.124190911484442523e+01
1.241472247848085964e+00,-7.068776830835566294e+00,-1.124057500910443252e+01
2.617395885373041242e+00,-6.572511145674738486e+00,-1.124155909806841791e+01
3.857335665668067293e+00,-5.916648582507242793e+00,-1.124251995550581640e+01
4.960229177106669773e+00,-5.079603750656692007e+00,-1.124092176567816637e+01
5.848256239297256798e+00,-4.091122736623075795e+00,-1.123967223590853770e+01
6.467607662276053659e+00,-2.951724351025316828e+00,-1.124091365704284051e+01
6.808717495498053829e+00,-1.740196955970428228e+00,-1.124205645768060435e+01
6.964769029701604275e+00,-5.559388436765018149e-01,-1.124139122309008165e+01
6.917372987758046321e+00,5.957500326051670125e-01,-1.124089051828621066e+01
6.727891568110769605e+00,1.644728795882393735e+00,-1.124182974256497225e+01
6.458167107804922757e+00,2.630735403530816363e+00,-1.124176517610417214e+01
6.086948543019279789e+00,3.550179326317747019e+00,-1.124163389876558483e+01
5.651271204540641691e+00,4.386090085113393044e+00,-1.124159427041976400e+01
5.154207342629357314e+00,5.198856623207819716e+00,-1.124116408294913327e+01
4.276131787488482772e+00,5.735969488319810239e+00,-1.329454291412209344e+01
3.665550398827979173e+00,6.397658481514333140e+00,-1.329411157763277096e+01
2.945920186891035186e+00,6.955837825796913343e+00,-1.329396564658421909e+01
2.128270073284271202e+00,7.355174738535057877e+00,-1.329454104480123178e+01
1.286698461621511580e+00,7.650588199339532380e+00,-1.329455217774192199e+01
3.961190927349259594e-01,7.881071529992572877e+00,-1.329415786721540016e+01
-5.927960348568519500e-01,7.986712580935691363e+00,-1.329484933956193871e+01
-1.566305639509575132e+00,7.947761612355664695e+00,-1.329395791993562881e+01
-2.598247815246022441e+00,7.782049885513980136e+00,-1.329325815249153209e+01
-3.623514609866223424e+00,7.446486826351343069e+00,-1.329400710483995951e+01
-4.495372750122163197e+00,6.899222591285321116e+00,-1.329383434377549023e+01
-5.289235949846744944e+00,6.172098102772880068e+00,-1.329369566527329205e+01
-6.062431988435335484e+00,5.328792474626023790e+00,-1.329373036668216912e+01
-6.607467172182450277e+00,4.357488239686581721e+00,-1.329464118960984464e+01
-7.036005871769781095e+00,3.320593607183952578e+00,-1.329509065024324421e+01
-7.195302367693564349e+00,2.213818847045620597e+00,-1.329450689462644242e+01
-7.290696287668817277e+00,1.107021325134378120e+00,-1.329397595953058442e+01
-7.203691109508487678e+00,-9.685344867847622830e-02,-1.329443136961350902e+01
-6.912595452430095655e+00,-1.268786636016794311e+00,-1.329407211433442626e+01
-6.385989055122926139e+00,-2.369650765647322466e+00,-1.329420406233344032e+01
-5.572485407856524020e+00,-3.268872246435336137e+00,-1.329457700286425315e+01
-4.720867891443566222e+00,-4.077112878379288929e+00,-1.329507389174167287e+01
-3.763346411747666487e+00,-4.788077825451900082e+00,-1.329553516777545852e+01
-2.682339261182109968e+00,-5.345485365593743765e+00,-1.329530004613190108e+01
-1.509326179650873678e+00,-5.663314267602880925e+00,-1.329505496321914393e+01
-2.970268362372427418e-01,-5.762466868835889322e+00,-1.329548864189688118e+01
9.537188940866985210e-01,-5.692874787610081810e+00,-1.329398672343985233e+01
2.127429927976939084e+00,-5.332070292848515969e+00,-1.329419340498264646e+01
3.210819647508916130e+00,-4.806187775677310370e+00,-1.329525835143009083e+01
4.207686869714957645e+00,-4.161532810122516857e+00,-1.329474693433217247e+01
4.985926170854940054e+00,-3.326311592032523912e+00,-1.329370709477910140e+01
5.529656158354585571e+00,-2.335212546932937450e+00,-1.329364188128003654e+01
5.956121661461567740e+00,-1.357180763029338877e+00,-1.329416956882093892e+01
6.188314759486606143e+00,-3.367732460434793573e-01,-1.329489596225444181e+01
6.150240401395694612e+00,6.946331405475562049e-01,-1.329462187370234538e+01
6.045075907124694226e+00,1.656554386200040030e+00,-1.329357256192786707e+01
5.860129683661912559e+00,2.548091275037137837e+00,-1.329382363679622259e+01
5.594584773014730672e+00,3.422478455166839240e+00,-1.329451510694388006e+01
5.248203902576664248e+00,4.253974597665923341e+00,-1.329445838068173735e+01
4.802795164582772891e+00,5.017309042451747914e+00,-1.329445639192414852e+01
3.826957510630704107e+00,5.378667639370595666e+00,-1.534754981468301871e+01
3.272548419014654097e+00,5.980280095917985150e+00,-1.534682109997314647e+01
2.626052974374802673e+00,6.456566043844132352e+00,-1.534642281174731693e+01
1.866571825845662280e+00,6.757433506276189661e+00,-1.534790340593863078e+01
1.119110544200123236e+00,6.971981852232330468e+00,-1.534742538890111341e+01
3.032208564325277744e-01,7.172353695810137708e+00,-1.534594205546020618e+01
-5.859960332014422235e-01,7.270608159419140293e+00,-1.534717857808024810e+01
-1.445302349113314122e+00,7.200252859035893849e+00,-1.534793780533524199e+01
-2.376702273004686727e+00,7.048094649502541387e+00,-1.534783128827262111e+01
-3.310363369744535600e+00,6.755313386614813176e+00,-1.534679385586184353e+01
-4.038087538749560501e+00,6.240101568727167702e+00,-1.534716657470528567e+01
-4.655651733910462831e+00,5.555509198414748440e+00,-1.534796209256833244e+01
-5.285809173697046504e+00,4.784539446627396941e+00,-1.534709556312005496e+01
-5.685941642094786808e+00,3.911206974820423898e+00,-1.534728126857669750e+01
-6.018456218730693585e+00,3.039372768652849999e+00,-1.534707741445120810e+01
-6.061095859432407806e+00,2.104476642877386450e+00,-1.534636005104056267e+01
-6.114785585793234723e+00,1.230912981800599493e+00,-1.534861274440206458e+01
-6.012869285472519643e+00,2.399691249924744696e-01,-1.534796799443849302e+01
-5.770470965974586086e+00,-7.431252098711351728e-01,-1.534712304397625893e+01
-5.322775637158796869e+00,-1.626497748354641004e+00,-1.534837464559091025e+01
-4.614257977968524216e+00,-2.323793160700462046e+00,-1.534770399258945517e+01
-3.921679294749860212e+00,-2.996272704773577100e+00,-1.534714576290607901e+01
-3.139881407845090955e+00,-3.562729427622448597e+00,-1.534791920138406596e+01
-2.258327568449473688e+00,-3.997732969454024676e+00,-1.534836130908757923e+01
-1.319707238000153326e+00,-4.261297918128251538e+00,-1.534778176342752687e+01
-3.449520817129572148e-01,-4.363312312138875271e+00,-1.534810560025797699e+01
6.969464776221765412e-01,-4.340472538860598917e+00,-1.534821107743637114e+01
1.690588737589058255e+00,-4.119541906630492356e+00,-1.534681572213058587e+01
2.603876558054752266e+00,-3.736606509634455620e+00,-1.534686457939860738e+01
3.467684070744379454e+00,-3.260404506048179663e+00,-1.534677429877754129e+01
4.157507601745368042e+00,-2.552882935943854292e+00,-1.534662424227900246e+01
4.630040552557497691e+00,-1.718866814082811167e+00,-1.534780622267868644e+01
5.098804554853795246e+00,-9.373010134034500673e-01,-1.534678226182250071e+01
5.372295405577647287e+00,-8.729731015792152604e-02,-1.534687254185673488e+01
5.333826918579452681e+00,8.196726788237858052e-01,-1.534830078615270033e+01
5.279159420665821223e+00,1.670922552105161385e+00,-1.534810010159796967e+01
5.176228269420184880e+00,2.462929354758589096e+00,-1.534900959393582909e+01
5.000722943728892034e+00,3.273109587461457970e+00,-1.534755312911288350e+01
4.729044358999233033e+00,4.053697064583384524e+00,-1.534590815946222264e+01
4.320636496759732381e+00,4.743471001530195963e+00,-1.534658790717972465e+01
3.207500815182229292e+00,4.842552761993434096e+00,-1.740071080005988691e+01
2.733183191182257943e+00,5.345575824597901260e+00,-1.740066131400434202e+01
2.184795592715189194e+00,5.725623846811801698e+00,-1.740077003956718826e+01
1.545703977448436905e+00,5.943733312424910764e+00,-1.740144257273191641e+01
9.086811716619841439e-01,6.098641368620296710e+00,-1.740152458689546577e+01
2.216190297592639247e-01,6.279882922223689157e+00,-1.740126853399078044e+01
-5.312316388676538992e-01,6.332109232458970283e+00,-1.740087922659019171e+01
-1.243011615799834990e+00,6.234163097629895844e+00,-1.740113880169259275e+01
-2.030092933409375799e+00,6.117723336397801859e+00,-1.740106682877066646e+01
-2.821389371738095786e+00,5.875757880720435367e+00,-1.740057291766863301e+01
-3.387716615676772403e+00,5.440264711920073992e+00,-1.740056549719263046e+01
-3.869125850009632828e+00,4.844156041990234307e+00,-1.740147472065159917e+01
-4.353495457436676652e+00,4.175864206930938849e+00,-1.740111303000123044e+01
-4.621165605107690588e+00,3.449924514757027882e+00,-1.740073145981554603e+01
-4.846170670939202729e+00,2.756112413182999266e+00,-1.740122859340805306e+01
-4.844061115379818538e+00,2.006370703618225892e+00,-1.740083950171124272e+01
-4.851734033503647403e+00,1.339487167405660095e+00,-1.740019895973540542e+01
-4.769752039890549078e+00,5.749912439015842924e-01,-1.740069604740351750e+01
-4.585804870659583088e+00,-1.980902372644239851e-01,-1.739999820667329899e+01
-4.211825719296255599e+00,-8.741483771540548009e-01,-1.739899117697187947e+01
-3.654593298695183012e+00,-1.413707675395241115e+00,-1.739989198453642771e+01
-3.124687384859597739e+00,-1.946637673666931523e+00,-1.740133917235177918e+01
-2.505132213371916272e+00,-2.385434230383547849e+00,-1.740208515363275055e+01
-1.818831322239139014e+00,-2.704052725180021710e+00,-1.740076003878940369e+01
-1.094832428680855729e+00,-2.910571954296214958e+00,-1.740011790488340182e+01
-3.433054560451579973e-01,-2.982879155227610823e+00,-1.740073926319710296e+01
4.846625042960641117e-01,-2.982989833295842885e+00,-1.740064958020779073e+01
1.272315897771409299e+00,-2.866570954897506240e+00,-1.740071130697605284e+01
2.006440662184402424e+00,-2.612163936858826752e+00,-1.740093540764152280e+01
2.723575132392339615e+00,-2.281908943823669489e+00,-1.740130962788738600e+01
3.293664577859597209e+00,-1.720948766171916944e+00,-1.740175666105936614e+01
3.715285366170607340e+00,-1.074428370850550651e+00,-1.740093024181180681e+01
4.161067858340027570e+00,-4.597146993720115926e-01,-1.740109490908807643e+01
4.424019567607825998e+00,2.252730821109238946e-01,-1.740063125051187498e+01
4.382707579810058540e+00,9.745414267760843519e-01,-1.739963301017132125e+01
4.345003391685576588e+00,1.699916488195466702e+00,-1.739976701932706504e+01
4.305658322690470108e+00,2.357214505939066562e+00,-1.740102237537227836e+01
4.213314906408294647e+00,3.053278579976425711e+00,-1.740169745272823931e+01
4.008123054062667556e+00,3.727620839288512400e+00,-1.740133341692654767e+01
3.649694685321544618e+00,4.310037977278380339e+00,-1.740094678223557878e+01
2.291489656149261478e+00,4.011003354439081292e+00,-1.945352073034871765e+01
1.931891907264227104e+00,4.361533448507342925e+00,-1.945441738284730349e+01
1.548191849910657947e+00,4.622234211019226713e+00,-1.945401733712710879e+01
1.081538550283712929e+00,4.766405212969931249e+00,-1.945364162789040918e+01
6.278085996589650719e-01,4.889630449374418930e+00,-1.945387472741764157e+01
1.317244233957707289e-01,5.035621463064554604e+00,-1.945348141560922173e+01
-4.175946774939466866e-01,5.031579457711925940e+00,-1.945362068449140125e+01
-9.310279968850373455e-01,4.931937304654941734e+00,-1.945369275837574108e+01
-1.510092357922134587e+00,4.854749992959838778e+00,-1.945332407673813080e+01
-2.084675855883775686e+00,4.668142750911233207e+00,-1.945381809686028873e+01
-2.437064916859654318e+00,4.338507600018910892e+00,-1.945409516063393340e+01
-2.801207744718779313e+00,3.938895518208016089e+00,-1.945414573166311811e+01
-3.092944064304507190e+00,3.435684028380267208e+00,-1.945408565331193174e+01
-3.277714293587556948e+00,2.914518802047497914e+00,-1.945405774172060376e+01
-3.374953309274733471e+00,2.434343049836115824e+00,-1.945425768404507139e+01
-3.343591641513320667e+00,1.923392234370516984e+00,-1.945441615809645342e+01
-3.337580434585108335e+00,1.480942079830925628e+00,-1.945380872520747317e+01
-3.285518653859392568e+00,9.653433425862896211e-01,-1.945399502827312332e+01
-3.161886409623057670e+00,4.477404289047893782e-01,-1.945346490143006335e+01
-2.872111644449648615e+00,1.506529934985256780e-02,-1.945323687358084186e+01
-2.537228239807063357e+00,-3.830787289033703580e-01,-1.945346474022161587e+01
-2.180184190220869844e+00,-7.611308915856764834e-01,-1.945353051087103324e+01
-1.755251532820083726e+00,-1.049138230038556108e+00,-1.945389457846436088e+01
-1.288904198118432820e+00,-1.234871584765849795e+00,-1.945397723164427717e+01
-8.001697703755812352e-01,-1.376334807261847093e+00,-1.945349524314889322e+01
-2.926996766321837140e-01,-1.418913992261170876e+00,-1.945404632272571988e+01
2.692821742308460498e-01,-1.417784647327655412e+00,-1.945479188193812092e+01
8.012214559779048395e-01,-1.387428490049929630e+00,-1.945405542959422363e+01
1.305368394244214469e+00,-1.255718607174386436e+00,-1.945371541301417295e+01
1.821348394311035790e+00,-1.042408001102708148e+00,-1.945392388064739464e+01
2.225967513074472937e+00,-6.603296996617074033e-01,-1.945410568668986429e+01
2.594265230808847633e+00,-2.514702317313375346e-01,-1.945366899284984896e+01
2.914451684055867187e+00,1.884478854048392549e-01,-1.945427807522865393e+01
3.132278559528157036e+00,6.686204332778628023e-01,-1.945467773293823655e+01
3.151182571128521737e+00,1.202809652049238620e+00,-1.945387435717959335e+01
3.083248572964386369e+00,1.735568256368332118e+00,-1.945325375641352750e+01
3.068284335738900470e+00,2.215150261959409672e+00,-1.945372144750271559e+01
3.027501872026695295e+00,2.721907173149659798e+00,-1.945441935878585227e+01
2.902854139089088736e+00,3.216173739610103333e+00,-1.945412526056649583e+01
2.633616226855362008e+00,3.637946204781986825e+00,-1.945339748410420810e+01
-2.020146145396893023e-01,1.778875383535944765e+00,-2.150706583478737244e+01
2.710835732565346490e+00,3.723732360255902929e+00,1.955660362732010782e+01
2.362795599436495309e+00,3.607212057985446751e+00,1.955660366419911611e+01
2.141605724114398868e+00,3.551489197500392603e+00,1.955660359426962458e+01
1.971649222107148436e+00,3.588698322469761059e+00,1.955660362507583727e+01
1.800554199419177825e+00,3.736969211108357225e+00,1.955660359376020452e+01
1.564662407883543160e+00,3.946241798929058131e+00,1.955660361621218968e+01
1.155625991855897539e+00,4.279418438230349508e+00,1.955660358824007972e+01
5.065774474614661571e-01,4.687153607168424330e+00,1.955660355046858712e+01
-3.229403051949986114e-01,5.030060019839044827e+00,1.955660357650279835e+01
-1.319831133967517278e+00,5.200063416100912050e+00,1.955660355599029288e+01
-2.391306458241531541e+00,5.130591797867104731e+00,1.955660357636977764e+01
-3.445368684077962484e+00,4.775279488812571138e+00,1.955660359847711405e+01
-4.417829763370217044e+00,4.184625864454012856e+00,1.955660357587395026e+01
-5.297099173283176476e+00,3.366298111920057679e+00,1.955660356962653879e+01
-6.044533712106471057e+00,2.331702611367469036e+00,1.955660358334680282e+01
-6.592248796883663609e+00,1.124348119604565932e+00,1.955660360065098402e+01
-6.899921236741919373e+00,-2.333557156898011797e-01,1.955660358528459497e+01
-6.974363000706084392e+00,-1.689759202332378196e+00,1.955660363723741213e+01
-6.759551872959249863e+00,-3.224248747858082798e+00,1.955660356812072820e+01
-6.240906876512713808e+00,-4.763816255401676081e+00,1.955660352617579179e+01
-5.403468874344429906e+00,-6.263836558281020928e+00,1.955660346400136262e+01
-4.227056008410248644e+00,-7.642346371818473649e+00,1.955660354670081347e+01
-2.742134043842746838e+00,-8.776654531295228878e+00,1.955660351075146863e+01
-9.952233829526900832e-01,-9.554750381773452261e+00,1.955660353121144013e+01
9.387984264362935205e-01,-9.912585574365248675e+00,1.955660354059885364e+01
2.923494830706351966e+00,-9.776135185533394889e+00,1.955660357414100048e+01
4.797832337754826426e+00,-9.163526611916001485e+00,1.955660357047525011e+01
6.407281297619651816e+00,-8.147263397558527132e+00,1.955660360283993882e+01
7.696821576963583489e+00,-6.836244899824730048e+00,1.955660359132769344e+01
8.593538381828466299e+00,-5.297347222734700267e+00,1.955660357058320997e+01
9.057930668874986324e+00,-3.614841231126239673e+00,1.955660361233728395e+01
9.100064487018816095e+00,-1.925362213930504218e+00,1.955660361119842960e+01
8.767129828158223503e+00,-3.449204782946966308e-01,1.955660359713021279e+01
8.140035972597177150e+00,1.037817164738850551e+00,1.955660363565536031e+01
7.301225233506830392e+00,2.147424474864757293e+00,1.955660359360456368e+01
6.338213712248259135e+00,2.963609727742074984e+00,1.955660355473622047e+01
5.380227542184091938e+00,3.484443147193204915e+00,1.955660356407060618e+01
4.539617665322781548e+00,3.768378658295048922e+00,1.955660357259918669e+01
3.807559868800062475e+00,3.864369884367977015e+00,1.955660359661735370e+01
2.591223646694350347e+00,3.294463811253375951e+00,1.775095223505924125e+01
2.161410560798301184e+00,3.143223393179237490e+00,1.775054287854619517e+01
1.901024167667103137e+00,3.039107943287469027e+00,1.775066760076838079e+01
1.750902359348306181e+00,3.010405313680704076e+00,1.775153715964567880e+01
1.673670837616927587e+00,2.931108642079441218e+00,1.775160766518920141e+01
1.623187864312124917e+00,2.984254540896613683e+00,1.775108280321910215e+01
1.508176108407278448e+00,3.226335196074563871e+00,1.775135253523922074e+01
1.223294764481033026e+00,3.644307545871948051e+00,1.775154013090050853e+01
7.423846298995719906e-01,4.070865511458510611e+00,1.775192067847568467e+01
8.906204353860358580e-02,4.446442752326287717e+00,1.775208271534444648e+01
-7.251865673747381891e-01,4.649035923373922685e+00,1.775163411583013229e+01
-1.674562128496989821e+00,4.712096983047286969e+00,1.775159331318435463e+01
-2.766724822823109609e+00,4.511888863819205397e+00,1.775224367099529488e+01
-3.817059109924167526e+00,4.066491373925687824e+00,1.775169599250255814e+01
-4.752794902161938673e+00,3.361705111697035342e+00,1.775121600408453659e+01
-5.611150330125778574e+00,2.428007929025598255e+00,1.775029354011693528e+01
-6.282494533415611926e+00,1.285726091187801901e+00,1.775031089570425991e+01
-6.772029551463503161e+00,-9.580443166999774718e-02,1.775111091836743071e+01
-7.004327887457394652e+00,-1.610633038751965618e+00,1.775041630392915337e+01
