-1.647058931703508033e+00,1.096217056181646043e+01,1.922360316170437144e+01
-3.253871145779761331e+00,1.049271675877641030e+01,1.922324226342614750e+01
-4.747599220845853729e+00,9.868780320996028976e+00,1.922313530286786332e+01
-6.082864071603450107e+00,9.012006112996147067e+00,1.922331091155190563e+01
-7.289230903355594648e+00,7.975234003503675950e+00,1.922247507401958799e+01
-8.425962310747264539e+00,6.858358576221481151e+00,1.922284898064907566e+01
-9.414891814481464394e+00,5.546688021773231725e+00,1.922451776414792590e+01
-1.028529417909921229e+01,4.142850618121050488e+00,1.922338971768719773e+01
-1.098961797998291701e+01,2.582257024522610855e+00,1.922280164525584212e+01
-1.134169298233978473e+01,9.234619498315400632e-01,1.922356671065310962e+01
-1.147796723273938291e+01,-7.754924298659882087e-01,1.922277438714633391e+01
-1.134389727801029757e+01,-2.560218220763600172e+00,1.922201947190241000e+01
-1.091805811707903118e+01,-4.354237438711213493e+00,1.922288674171747758e+01
-1.017511476802914672e+01,-6.060939414797005043e+00,1.922399596223081630e+01
-9.140727845054518852e+00,-7.682777135625218357e+00,1.922213169167854119e+01
-7.942520510133877387e+00,-9.205392123932394810e+00,1.922317622821526584e+01
-6.478351232920001479e+00,-1.058525373189057106e+01,1.922279207251514421e+01
-4.772102922429215965e+00,-1.174175555933450177e+01,1.922196614316574781e+01
-2.869760635120168768e+00,-1.254682925023501028e+01,1.922216806104436770e+01
-8.146114448671604169e-01,-1.297138802403795310e+01,1.922225294353552982e+01
1.273877820157367502e+00,-1.305746770439727023e+01,1.922271733960071671e+01
3.361449657259495627e+00,-1.266157722644554262e+01,1.922351673135771932e+01
5.332732624326587789e+00,-1.197056393762733073e+01,1.922343766594057257e+01
7.237463913558496387e+00,-1.102717409094964474e+01,1.922312597926855560e+01
8.961026851177594565e+00,-9.700374762068957324e+00,1.922352362415752935e+01
1.045644470440849361e+01,-8.114932472403012298e+00,1.922278513716688764e+01
1.163247386914532200e+01,-6.320174971926574514e+00,1.922213493280257168e+01
1.239434556410074251e+01,-4.312309132877279794e+00,1.922238705871808762e+01
1.274174236284714823e+01,-2.215956301792126215e+00,1.922236856764495982e+01
1.271132654488005898e+01,-1.147420997538585175e-01,1.922264630543340047e+01
1.232071427299620581e+01,1.920365331554866106e+00,1.922331080724008601e+01
1.160044228879498363e+01,3.801706366075317867e+00,1.922384441936271315e+01
1.062941552251515454e+01,5.480731222557751359e+00,1.922390278683414522e+01
9.491962512849477562e+00,7.021097778332098471e+00,1.922403087397723098e+01
8.320064480561631726e+00,8.388146141443748149e+00,1.666810607985424753e+01
6.857786602761577477e+00,9.508960361473684841e+00,1.666777209461827525e+01
5.255995182848968383e+00,1.037200664805641281e+01,1.666797295259421219e+01
3.532729975311855952e+00,1.099893246307019368e+01,1.666835838671349990e+01
1.762144561666318054e+00,1.132665172988500579e+01,1.666807596365702082e+01
4.098636616160344914e-02,1.133700361317374750e+01,1.666752049847356787e+01
-1.680088287217200937e+00,1.109356298859215606e+01,1.666867456057069674e+01
-3.288716340308744712e+00,1.062547874683235349e+01,1.666825620731705371e+01
-4.815647923256779706e+00,9.966399845751306330e+00,1.666871339691700982e+01
-6.144026838470532326e+00,9.105284207493147264e+00,1.667024215303133516e+01
-7.369081480029712417e+00,8.055376117528284752e+00,1.666892892694637851e+01
-8.517184889024605354e+00,6.900445089371836538e+00,1.666769002862127991e+01
-9.519440414031194564e+00,5.597006577800952343e+00,1.666840458957035764e+01
-1.042561071466414901e+01,4.157238649905600880e+00,1.666842673669129127e+01
-1.111726714221309820e+01,2.593396441698272437e+00,1.666719361256662424e+01
-1.148607531728094422e+01,8.828083328339517699e-01,1.666784841331779532e+01
-1.162534395356993855e+01,-8.104901838314262363e-01,1.666881736516560508e+01
-1.146836878772704615e+01,-2.628176456642041803e+00,1.666878230045331932e+01
-1.103255500586003279e+01,-4.413609402426180495e+00,1.666847926082787268e+01
-1.028377295562146365e+01,-6.159602046914494977e+00,1.666904894824201833e+01
-9.230875897574344791e+00,-7.802265275895095442e+00,1.666916352549660729e+01
-7.988353995766540372e+00,-9.330003040792524516e+00,1.666812718498455936e+01
-6.506329112354218402e+00,-1.071970054477974088e+01,1.666793673255872932e+01
-4.770018475513334799e+00,-1.187255005807490171e+01,1.666858413873740830e+01
-2.861634755488209336e+00,-1.268638543774751426e+01,1.666925234187458926e+01
-8.036105215247240086e-01,-1.312903559334108117e+01,1.666839798296310704e+01
1.286749285288108613e+00,-1.322873133135793644e+01,1.666763890065061560e+01
3.373708458335367588e+00,-1.284048484514163491e+01,1.666869911072150501e+01
5.370998553972549772e+00,-1.214038922710385648e+01,1.666922145665499855e+01
7.286284719410418553e+00,-1.117202250289393284e+01,1.666825377538475550e+01
9.013282584511369322e+00,-9.833647597717915190e+00,1.666859347948126668e+01
1.051762083883917498e+01,-8.217693060979557984e+00,1.666943949708169725e+01
1.170483523122225655e+01,-6.432465953069531395e+00,1.666790887898426377e+01
1.250846542461388466e+01,-4.426703907354053058e+00,1.666717482904170211e+01
1.285788686322848662e+01,-2.333498236216605459e+00,1.666881785559169771e+01
1.282272774484807520e+01,-2.060673174504863703e-01,1.666996668167475093e+01
1.245304515541131707e+01,1.860144874744036558e+00,1.666846513980108213e+01
1.172207228471873108e+01,3.769836198731366661e+00,1.666851922599795088e+01
1.074488696933712362e+01,5.484563744698627730e+00,1.666976176530619824e+01
9.614958315858975979e+00,7.025962364647368119e+00,1.666936524696695443e+01
8.323934757842556209e+00,8.339760904246208639e+00,1.411413296156304753e+01
6.856609693658162641e+00,9.464555861070090614e+00,1.411372471724491184e+01
5.229800165650731358e+00,1.035217294986644809e+01,1.411346645861843996e+01
3.536111635071886639e+00,1.102046605398595602e+01,1.411349735940454053e+01
1.759785424324189274e+00,1.138956264070272795e+01,1.411295606106897971e+01
2.515194614193472233e-02,1.137630070797285775e+01,1.411413142728151371e+01
-1.688309415303445471e+00,1.110301806989872198e+01,1.411461388125622918e+01
-3.293216117426395861e+00,1.061697259268876614e+01,1.411363282974160782e+01
-4.785615011485102599e+00,9.949055344432366610e+00,1.411341755476764703e+01
-6.134322739082091580e+00,9.082276085214347816e+00,1.411433154083013619e+01
-7.384814057153465505e+00,8.047742004671643912e+00,1.411289756301932741e+01
-8.536536594862688787e+00,6.871480478751371024e+00,1.411339508691192357e+01
-9.557755048352163385e+00,5.584905476189073070e+00,1.411479580330961170e+01
-1.048406876389631925e+01,4.168148438358451280e+00,1.411439203429003264e+01
-1.117964788139022758e+01,2.576151003398868156e+00,1.411350923529744072e+01
-1.159906045983396083e+01,8.808356068118086135e-01,1.411337840811889421e+01
-1.174272531212624315e+01,-8.846665646322902088e-01,1.411436804055023941e+01
-1.156705297966314028e+01,-2.714806419589157471e+00,1.411430211353916953e+01
-1.110292259792186442e+01,-4.485141646374234625e+00,1.411404712881687651e+01
-1.034249104126873320e+01,-6.221573996883535962e+00,1.411467208671565743e+01
-9.279299956301192864e+00,-7.901215739205968980e+00,1.411467120566345557e+01
-8.028960416204773409e+00,-9.428755451106690444e+00,1.411332435328143475e+01
-6.520097653959576967e+00,-1.077411669758201285e+01,1.411391458118000486e+01
-4.783044073656747663e+00,-1.187797746666494092e+01,1.411453049688436145e+01
-2.846442898961210943e+00,-1.271338378131072311e+01,1.411431269855574300e+01
-8.024064221025916099e-01,-1.316681343254645853e+01,1.411423519509833646e+01
1.267209808914820712e+00,-1.323812211611662093e+01,1.411447056004556444e+01
3.329750016594216433e+00,-1.290147735929013884e+01,1.411384626904070316e+01
5.367505530340907605e+00,-1.223784934603303931e+01,1.411367867853723368e+01
7.275323589965648985e+00,-1.125117509970696439e+01,1.411412205571973288e+01
9.016386576803311570e+00,-9.888329751078297036e+00,1.411320415638072134e+01
1.049695796762870614e+01,-8.267047643612118080e+00,1.411464122232685270e+01
1.169808865447586754e+01,-6.466395303676958584e+00,1.411402631397597496e+01
1.250276162163776661e+01,-4.491674688280470562e+00,1.411364826072144041e+01
1.287253577354176670e+01,-2.385819181058082883e+00,1.411435060481208126e+01
1.281429674988437917e+01,-2.719707939591478052e-01,1.411396301251866170e+01
1.244940503166868950e+01,1.788623876716798788e+00,1.411263134283491461e+01
1.172947677698895319e+01,3.710275541302640701e+00,1.411214368432455935e+01
1.076082086593569009e+01,5.445293252206243828e+00,1.411279217531911101e+01
9.636365429705575636e+00,6.977504307778616521e+00,1.411367908246384317e+01
8.271751517786356089e+00,8.238493203466841663e+00,1.156066022857829800e+01
6.793266814169604650e+00,9.376914200931365073e+00,1.155986624924782369e+01
5.206958897490196136e+00,1.025882829094428317e+01,1.155901302349274218e+01
3.533380069404842061e+00,1.091501300895278526e+01,1.155856673993009487e+01
1.758652426294705418e+00,1.131696861133521992e+01,1.155871270959509900e+01
7.063376561073753113e-03,1.132452226424815755e+01,1.155975241864474157e+01
-1.669446198492251510e+00,1.101263607908719244e+01,1.156034335339428054e+01
-3.251657669251668992e+00,1.053823530019628585e+01,1.155859164374619219e+01
-4.703940514275694262e+00,9.882817026962925411e+00,1.155850751049333169e+01
-6.072658151295335038e+00,9.038235811169101908e+00,1.156019798432591905e+01
-7.355324404539157257e+00,8.017671854922765462e+00,1.155972463291575991e+01
-8.509140708955095889e+00,6.865380849808119912e+00,1.155944235603758585e+01
-9.562538301369315263e+00,5.580073212821985429e+00,1.155993590657974934e+01
-1.048010077899004244e+01,4.169474855277571557e+00,1.155974884807239533e+01
-1.118978573782608699e+01,2.557569035865547402e+00,1.155910313977545378e+01
-1.164850889744169571e+01,8.566474580589095167e-01,1.155876302349865981e+01
-1.180074752950075379e+01,-9.377390919322321494e-01,1.155996083302398603e+01
-1.161346646974505070e+01,-2.751895038416705574e+00,1.155901669155813494e+01
-1.110360778115840219e+01,-4.524582752750116121e+00,1.155867473819705360e+01
-1.033416696922177458e+01,-6.257673344754810962e+00,1.155957793262312983e+01
-9.312802346292709643e+00,-7.906613447450895116e+00,1.155818581804715350e+01
-8.048047374861370784e+00,-9.446669968080781743e+00,1.155866620397419275e+01
-6.517795603633136814e+00,-1.075116984155910949e+01,1.156031090338444756e+01
-4.767773565793677726e+00,-1.183532099590127196e+01,1.156084940402996253e+01
-2.868559707444431339e+00,-1.263443290788088369e+01,1.156037262343640215e+01
-8.296933203316870786e-01,-1.309238714090415812e+01,1.155923583200508276e+01
1.250185383365761460e+00,-1.312750932157700667e+01,1.155941843699401872e+01
3.302831228047815149e+00,-1.280346693804092340e+01,1.155892112606044719e+01
5.329852792868917000e+00,-1.218186708220623338e+01,1.155868151444946079e+01
7.245682549900910985e+00,-1.118277907672166727e+01,1.155954402404718451e+01
8.984084841731805327e+00,-9.823297970407805835e+00,1.156002887665054857e+01
1.042153184906602092e+01,-8.223688902224141728e+00,1.155921682820797436e+01
1.157596032835943944e+01,-6.419946295122198165e+00,1.155910707720279618e+01
1.237731097315608331e+01,-4.453731223346342638e+00,1.155972725851468930e+01
1.275161370747198042e+01,-2.378355444373021932e+00,1.155960178200316690e+01
1.269247451651299130e+01,-2.974321651751203888e-01,1.155933693887154234e+01
1.232410580568342162e+01,1.745333790169490085e+00,1.155916611905135483e+01
1.164763442389737769e+01,3.662346683766051214e+00,1.155900077024925565e+01
1.070510534407965153e+01,5.374079555215711679e+00,1.155949695890956797e+01
9.581486551331712676e+00,6.899524008229288796e+00,1.156027663385381743e+01
8.170374874059445958e+00,8.092577262288269679e+00,9.003601748891291834e+00
6.714503180967700047e+00,9.223097639661764546e+00,9.005075289239236724e+00
5.129278028191653682e+00,1.009794871061227539e+01,9.005181249978656766e+00
3.458841214457183177e+00,1.072782717823710641e+01,9.005023042691401969e+00
1.731494159294852730e+00,1.107936157254183662e+01,9.005282405997538930e+00
2.994426764496510573e-02,1.111238201209667409e+01,9.005167570308993064e+00
-1.602221237854653202e+00,1.083392721330383246e+01,9.005149469737780521e+00
-3.148973460124318891e+00,1.038233010131419043e+01,9.005337203141598579e+00
-4.608622187621071120e+00,9.764237267991664027e+00,9.005650488220945604e+00
-5.979970382440265908e+00,8.966121515622715421e+00,9.005267636283972976e+00
-7.298143352020443508e+00,7.979979991186151089e+00,9.005146447326541903e+00
-8.475656588601239605e+00,6.847661251061855303e+00,9.005270923894348911e+00
-9.531095454990111904e+00,5.556993610279913121e+00,9.005296012473150924e+00
-1.042161161960671123e+01,4.124342924767894658e+00,9.004938419736914668e+00
-1.112512522861138109e+01,2.514407766678968592e+00,9.004467447974580097e+00
-1.157510645688140194e+01,8.415530513964329939e-01,9.004520763314463494e+00
-1.173093125266382764e+01,-9.447430626267178111e-01,9.004641267045913722e+00
-1.153161051093779754e+01,-2.753243253485607944e+00,9.005430076136001105e+00
-1.101880735793339561e+01,-4.510987257442151233e+00,9.004899600651159020e+00
-1.024077474252734277e+01,-6.228374333583933442e+00,9.004358795150375627e+00
-9.275364049381055409e+00,-7.837272174015787130e+00,9.005551252552976393e+00
-8.013198339388818425e+00,-9.341563140877147120e+00,9.003782950043351718e+00
-6.489655120447411996e+00,-1.063835599943236154e+01,9.004844669316447892e+00
-4.756870464581698599e+00,-1.167615158471034142e+01,9.006001794593448295e+00
-2.862336727421012750e+00,-1.242285935007981301e+01,9.005013265409631984e+00
-8.502758037250099932e-01,-1.287114554339234118e+01,9.004791274337305751e+00
1.207535518381116280e+00,-1.289863275497748063e+01,9.004409287765042791e+00
3.248974413506474868e+00,-1.261062964965820399e+01,9.005682139774691564e+00
5.236760071382537518e+00,-1.199061066229632821e+01,9.005037707141047676e+00
7.151973885258034791e+00,-1.097866649804540451e+01,9.004090161961958216e+00
8.855773228992934065e+00,-9.656820468289797788e+00,9.005201003580665997e+00
1.025018841776502576e+01,-8.050572928561727792e+00,9.005114760697196630e+00
1.136688715660961257e+01,-6.271755264068819891e+00,9.004348589343315723e+00
1.214128293289214788e+01,-4.340709467373750741e+00,9.003909368767605059e+00
1.251464193443327488e+01,-2.299905804730576264e+00,9.004650480319138950e+00
1.246967164240488124e+01,-2.591276079441685032e-01,9.005594665930500398e+00
1.209709511896054757e+01,1.721879430512355258e+00,9.004419134115005718e+00
1.143349986967016285e+01,3.596877852648566076e+00,9.004210675199736613e+00
1.055484212680813449e+01,5.276136412028238354e+00,9.004258590959118180e+00
9.444902186067455574e+00,6.784466771321997491e+00,9.003528506897211514e+00
8.000139239403116775e+00,7.935426218371373963e+00,6.449912584145208960e+00
6.575592041464544124e+00,9.014450159750618141e+00,6.449437641916054176e+00
5.017977350547701221e+00,9.864104424679176475e+00,6.450092236806458601e+00
3.383852000942856542e+00,1.043600106387789062e+01,6.450348231702212942e+00
1.697431151825355755e+00,1.072043612892054476e+01,6.450326663258053372e+00
4.431598029861435334e-02,1.077117275128204632e+01,6.450263958819980381e+00
-1.525562000655404926e+00,1.056196888640512199e+01,6.449815868795437446e+00
-3.003614908812380691e+00,1.015329449401752093e+01,6.450291583037509824e+00
-4.476927026667853582e+00,9.599539223570971558e+00,6.450481514110153469e+00
-5.881501824397406430e+00,8.840665936767754474e+00,6.449736037302482572e+00
-7.206370849298290970e+00,7.904433331499125970e+00,6.449842613552412729e+00
-8.402086481111435745e+00,6.791062036191498841e+00,6.450383190858640425e+00
-9.458560367449983630e+00,5.508061421683462022e+00,6.450074841548008031e+00
-1.031251225811255345e+01,4.063413110213735635e+00,6.449648716566139584e+00
-1.097499032781374062e+01,2.470465161365469342e+00,6.450245125441654181e+00
-1.143220909534025331e+01,8.048334535530732303e-01,6.450540790765769472e+00
-1.151609063580687575e+01,-9.458046088526342876e-01,6.450485110126960464e+00
-1.131295639743947667e+01,-2.716438103562444972e+00,6.449553283940858250e+00
-1.080212918481129059e+01,-4.453017488146990388e+00,6.449553651804643906e+00
-1.007190794092538511e+01,-6.109414442074865725e+00,6.450186764796044692e+00
-9.120144941781118675e+00,-7.685142995412651779e+00,6.449588241532811850e+00
-7.870711864193322249e+00,-9.152841442657630111e+00,6.449567283023833753e+00
-6.389018049988082204e+00,-1.040959070695956612e+01,6.450351894661665142e+00
-4.669967892117684372e+00,-1.140377223478919255e+01,6.449404774923622519e+00
-2.796745471854901410e+00,-1.210581057260740323e+01,6.449092972163986914e+00
-8.465441626530701980e-01,-1.251518672604114535e+01,6.450714638447867522e+00
1.194094174694668276e+00,-1.255264628467180188e+01,6.450904436247383522e+00
3.172842749306650667e+00,-1.227926896555264058e+01,6.451301647529674277e+00
5.121756932218056058e+00,-1.166841289269673609e+01,6.450343006556166436e+00
6.990956000501443945e+00,-1.067771352194513845e+01,6.449515852922612424e+00
8.646885900993986240e+00,-9.378967516185719333e+00,6.450371678482857085e+00
9.998323861669485169e+00,-7.791805749400848136e+00,6.450876145410287421e+00
1.105934289105589130e+01,-6.063403171457986574e+00,6.450641053739740727e+00
1.180475754001563793e+01,-4.177350356113051610e+00,6.450140763732759908e+00
1.218642284356302596e+01,-2.200663616157209734e+00,6.450077293947983570e+00
1.217986870057028526e+01,-2.199593795753426173e-01,6.450786328960162130e+00
1.179499063774909828e+01,1.693473505663451117e+00,6.449448343263735950e+00
1.116740417158907661e+01,3.493756360906249636e+00,6.449049742742674951e+00
1.031560727340590056e+01,5.168499886581688685e+00,6.449844142428155180e+00
9.246598124889519710e+00,6.652494316238506400e+00,6.450116184116303053e+00
7.774011210149592621e+00,7.734949028884744671e+00,3.895439103168127026e+00
6.358383220497420218e+00,8.759034500466432505e+00,3.895983927227749888e+00
4.855044472643745834e+00,9.563258957008828887e+00,3.896039079567830132e+00
3.260689378203657451e+00,1.010641636347244798e+01,3.896342929416161560e+00
1.653168053679245464e+00,1.033749320479391720e+01,3.895989637976820408e+00
7.667229194552693805e-02,1.035355785821638719e+01,3.895320389885128964e+00
-1.459535258279920145e+00,1.022043713544480958e+01,3.895547817232711374e+00
-2.902754186796606906e+00,9.888189058645336260e+00,3.896399560024256026e+00
-4.345368939296388788e+00,9.382622707269392848e+00,3.896326266877014888e+00
-5.773051849104605893e+00,8.658207469678048440e+00,3.894962065744566271e+00
-7.090291902602227303e+00,7.740365148931322992e+00,3.894966566362825233e+00
-8.251215788126827988e+00,6.700901167154465377e+00,3.895825175107390681e+00
-9.304872243265398524e+00,5.436428652484484481e+00,3.895378549777386734e+00
-1.013640749543574238e+01,3.989084168243032913e+00,3.896049747130152952e+00
-1.076117995321594911e+01,2.414344186813470294e+00,3.896351101729776722e+00
-1.117833111866212903e+01,7.776828990264809116e-01,3.895424743827606839e+00
-1.120914122954941661e+01,-9.486999547612995354e-01,3.897451675477782373e+00
-1.098274797168857475e+01,-2.674276698759577631e+00,3.895754485193222205e+00
-1.049666562069355713e+01,-4.363574764525210981e+00,3.894930124985446440e+00
-9.796325897549239770e+00,-5.955134303254917327e+00,3.895606002287241409e+00
-8.857100401818676971e+00,-7.488913913735387062e+00,3.894797975614545216e+00
-7.643181337136993214e+00,-8.862323369469777390e+00,3.895157717047617929e+00
-6.207775179658707287e+00,-1.009776436436942149e+01,3.895670887801285787e+00
-4.536108419258833457e+00,-1.105778577475640745e+01,3.896048074378214210e+00
-2.704594661299147162e+00,-1.171649669235623037e+01,3.895308634630119116e+00
-8.131301814976568121e-01,-1.208023605231977271e+01,3.894716353433805178e+00
1.169619521707159215e+00,-1.214291989470318178e+01,3.896041607033214671e+00
3.100442520594619555e+00,-1.186858781502001214e+01,3.895321993617777867e+00
4.972536845609975664e+00,-1.125135481507044410e+01,3.895314433908462881e+00
6.761719123609990945e+00,-1.029449480372171699e+01,3.895166259049747115e+00
8.345639468339408396e+00,-9.032145594472215322e+00,3.894672998232261207e+00
9.661869773079271084e+00,-7.506649300588092544e+00,3.895396860139221928e+00
1.066897486535579631e+01,-5.812200104374131371e+00,3.896170634365393681e+00
1.138515723392956325e+01,-3.991465716360331317e+00,3.895608002517117807e+00
1.179755168060496473e+01,-2.098511722922416389e+00,3.895059697514564157e+00
1.182977184820521543e+01,-1.742317529737517634e-01,3.896383722545827766e+00
1.146334784507033966e+01,1.669949099947446669e+00,3.895696131868905177e+00
1.085666206157060465e+01,3.411775046375614906e+00,3.895349294999710832e+00
1.004777552752745251e+01,5.034859516077733410e+00,3.895620201686746942e+00
9.012969840963979351e+00,6.489362484904946271e+00,3.895411982638363746e+00
7.480825654229170674e+00,7.467102323716594547e+00,1.341457941840933810e+00
6.113257791107896466e+00,8.435759691821973050e+00,1.340555906237571149e+00
4.665725789916082888e+00,9.213140717253669010e+00,1.340695565715684490e+00
3.139391547365634416e+00,9.723629418944746305e+00,1.341839591915846341e+00
1.601110158942926409e+00,9.956905367838068344e+00,1.342373362850361351e+00
1.043010073333849874e-01,9.987719566626038770e+00,1.341871178426375488e+00
-1.372485380315438652e+00,9.896176381507620690e+00,1.341481381159453479e+00
-2.821687358403384582e+00,9.604123889437399697e+00,1.340688177526301983e+00
-4.237381172884059133e+00,9.124837230396039445e+00,1.341021000028239651e+00
-5.629132639369993640e+00,8.418375232528907404e+00,1.341577846740509283e+00
-6.880528800923880972e+00,7.560604673191455127e+00,1.341657406638571803e+00
-8.026900419461910019e+00,6.529438296053256430e+00,1.340962864494392282e+00
-9.056194993978085250e+00,5.309792813658308575e+00,1.340149348799870577e+00
-9.879171813366124155e+00,3.893260708468424980e+00,1.340916708144634040e+00
-1.047502054302318264e+01,2.371525619124517092e+00,1.341274287935287468e+00
-1.084019743400365954e+01,7.509200608185535586e-01,1.340593709362811969e+00
-1.085525364813304705e+01,-9.324367438899167082e-01,1.340992360337598166e+00
-1.058408548159740903e+01,-2.623082399100318263e+00,1.341540015347557624e+00
-1.009490568510583408e+01,-4.262550223503029478e+00,1.341540497522565989e+00
-9.433900146479718529e+00,-5.770988184232754392e+00,1.341162370357847022e+00
-8.512065188604058363e+00,-7.245244639123262331e+00,1.341431498907893483e+00
-7.322836211619943469e+00,-8.578056801789287533e+00,1.341059536197548141e+00
-5.940298430579363576e+00,-9.736694278218006815e+00,1.340707862773860226e+00
-4.326674618617990298e+00,-1.066074929223796097e+01,1.340365428999397590e+00
-2.563636311424097869e+00,-1.127970576873219777e+01,1.341559192423265490e+00
-7.340363295848378877e-01,-1.160826748457056112e+01,1.342441186873474468e+00
1.161879788806653213e+00,-1.166517315254690423e+01,1.341067698250569151e+00
2.998692872031563983e+00,-1.138796293286734418e+01,1.341036248148496757e+00
4.783073981704274225e+00,-1.076773284852990287e+01,1.341294189918768920e+00
6.474601688151803813e+00,-9.834114748748733703e+00,1.340886922927932767e+00
7.994308203923544021e+00,-8.627797234986841701e+00,1.340709869860438719e+00
9.262554909640419609e+00,-7.153605192739303398e+00,1.340417957065166421e+00
1.022781082177629486e+01,-5.521986409925079720e+00,1.341035512454112899e+00
1.093303407782279990e+01,-3.801383227951435906e+00,1.341597792853015614e+00
1.135840571095585183e+01,-1.996783555118877285e+00,1.341060955098825946e+00
1.139101561716834787e+01,-1.282710023260234256e-01,1.341115492066066395e+00
1.107829429250145914e+01,1.620341935721734350e+00,1.342803244846542121e+00
1.052136003812561960e+01,3.307153443851206909e+00,1.342932506862610564e+00
9.722004287029623271e+00,4.889103664963339924e+00,1.342352843150278696e+00
8.690546348170114399e+00,6.289628909915404797e+00,1.342031179246173878e+00
7.146531673224425951e+00,7.178344916768139683e+00,-1.212888401048688003e+00
5.869728004704841240e+00,8.109197451563648684e+00,-1.214186265048336821e+00
4.475869022851502343e+00,8.848507418071926978e+00,-1.212918247105329250e+00
3.008721872790844465e+00,9.329262164933171064e+00,-1.213172815437326246e+00
1.552430951518868785e+00,9.600293386934366069e+00,-1.214666065174313747e+00
9.863103235999208518e-02,9.692239230048995680e+00,-1.212887957228919511e+00
-1.323814050784685836e+00,9.596309420405368940e+00,-1.213582956204952268e+00
-2.748280508539271416e+00,9.322990235425892891e+00,-1.212360135028224262e+00
-4.150921623909542113e+00,8.811499841349254680e+00,-1.212337978660734894e+00
-5.450030519080941716e+00,8.157182337933720717e+00,-1.213732895868065986e+00
-6.651187371906672752e+00,7.326906120159282665e+00,-1.212670551082017933e+00
-7.743999156829735497e+00,6.319730039594325888e+00,-1.214389012170099758e+00
-8.735867978292770175e+00,5.155668897702307518e+00,-1.213483635586048992e+00
-9.541276000705819271e+00,3.797943321625498747e+00,-1.212542811336668080e+00
-1.010697904999566532e+01,2.305156827524468710e+00,-1.212773164194884679e+00
-1.042016881933872163e+01,7.212779928669951213e-01,-1.213066039478547520e+00
-1.043816214335602766e+01,-8.964125495200339078e-01,-1.213978147989745571e+00
-1.014819054612868499e+01,-2.531339808787500090e+00,-1.213278961106180942e+00
-9.637790603948621637e+00,-4.122584446521623036e+00,-1.213368444325505946e+00
-8.988061212066265071e+00,-5.578308625516460673e+00,-1.214120257808210424e+00
-8.080039858896659766e+00,-6.990262349862097935e+00,-1.213591396537661016e+00
-6.936028874350588680e+00,-8.252415076067046940e+00,-1.213666767508431166e+00
-5.579095316976255603e+00,-9.339638329606865241e+00,-1.213453488601018204e+00
-4.060318117640480118e+00,-1.021546279528661749e+01,-1.212596661730067416e+00
-2.376191214566377052e+00,-1.078552831082178365e+01,-1.212012543253326635e+00
-6.002338274875519408e-01,-1.108444576791071512e+01,-1.212809180013635357e+00
1.159423005849986366e+00,-1.109395969710771190e+01,-1.213735326726443242e+00
2.887259821859550879e+00,-1.080390093784226657e+01,-1.214047467363060573e+00
4.580360414467395280e+00,-1.020229121228833691e+01,-1.213548310099146210e+00
6.148855478126548313e+00,-9.314950889324340011e+00,-1.213740216360384316e+00
7.591498265409676094e+00,-8.152809161047766651e+00,-1.213664933565429038e+00
8.818829674683367870e+00,-6.771347281567640763e+00,-1.213401778004133513e+00
9.779692570146256259e+00,-5.214526293371088528e+00,-1.213370248259538542e+00
1.048022953606264629e+01,-3.582249954253189372e+00,-1.213120000949224231e+00
1.086032801520104307e+01,-1.868032867661591157e+00,-1.212362830207902586e+00
1.089250919330420864e+01,-1.120979371290195536e-01,-1.212190308224074364e+00
1.062963511604677080e+01,1.569828474833122822e+00,-1.213266514981596211e+00
1.012390246226966717e+01,3.215373358133594373e+00,-1.214183208236216505e+00
9.342906270276731817e+00,4.722137037070923249e+00,-1.213808680858672773e+00
8.323038129172267929e+00,6.047220431010558173e+00,-1.212846860617263545e+00
6.810018451375074555e+00,6.935358610747409891e+00,-3.766974596858946533e+00
5.601035703279502620e+00,7.836766087400491188e+00,-3.767900102600697743e+00
4.262579795116001158e+00,8.546395159661459573e+00,-3.766768385495118387e+00
2.877755080344201133e+00,9.011884831524051620e+00,-3.766915892135566768e+00
1.491635436688302896e+00,9.296258450603827939e+00,-3.768358751568347209e+00
9.113833677192496874e-02,9.414719257388339813e+00,-3.768548594949232555e+00
-1.311135801033963766e+00,9.307472943906299534e+00,-3.767746237397759934e+00
-2.695848911515216439e+00,9.023159550347347846e+00,-3.767459085075516079e+00
-4.001869191292343864e+00,8.557035686837060950e+00,-3.767201716228863351e+00
-5.231588083566728109e+00,7.913358464190936914e+00,-3.767917881536266389e+00
-6.395285297865744845e+00,7.096582747473883401e+00,-3.768563443343735386e+00
-7.427625815059164971e+00,6.124738112635214726e+00,-3.768756882650969864e+00
-8.366061911558793085e+00,4.985993138917542922e+00,-3.767942030274028298e+00
-9.150185094255688156e+00,3.678168661536294071e+00,-3.767566392766364736e+00
-9.657002767873162696e+00,2.254851474107564258e+00,-3.768589435885311811e+00
-9.923587226241281201e+00,7.277449730918845727e-01,-3.769317436607787286e+00
-9.936236846803620182e+00,-8.332005092128598189e-01,-3.768500180495444773e+00
-9.663396372460129058e+00,-2.416832096593919399e+00,-3.767303557191323371e+00
-9.154589691355488057e+00,-3.907725378476303302e+00,-3.767313590778459176e+00
-8.470111711353627726e+00,-5.329057782432164991e+00,-3.767441213438524894e+00
-7.581273800821403341e+00,-6.671675845048760323e+00,-3.768520822850486063e+00
-6.454256076253759744e+00,-7.883918666916109430e+00,-3.768988113531153594e+00
-5.138670016323193757e+00,-8.891067903081282253e+00,-3.767744492189259553e+00
-3.695703285849300190e+00,-9.693760797011348629e+00,-3.767974241820956305e+00
-2.115039462481341559e+00,-1.022210363049789805e+01,-3.768840483391848295e+00
-4.605404117748299608e-01,-1.046859089035768164e+01,-3.769000515957056319e+00
1.190091467689810001e+00,-1.042974586380660362e+01,-3.768555825449777963e+00
2.813899420755766378e+00,-1.011753058120199000e+01,-3.768598434786746498e+00
4.349500812357794288e+00,-9.563809306647621966e+00,-3.769542131105029448e+00
5.814012495033810346e+00,-8.725405592745996586e+00,-3.769821127245022829e+00
7.173752712879639226e+00,-7.626933780920546191e+00,-3.769084741449986176e+00
8.385688735252358583e+00,-6.380769298451998139e+00,-3.767241050190939688e+00
9.312389055310603680e+00,-4.911352379710158367e+00,-3.767540069627568489e+00
9.952816543628827617e+00,-3.343863661119219621e+00,-3.768088153562811904e+00
1.031021477574684653e+01,-1.727653786040174388e+00,-3.767797796728998172e+00
1.036786740169600307e+01,-6.334718217959034448e-02,-3.767769066343325424e+00
1.013955874892566911e+01,1.563072599613324343e+00,-3.768482019254399074e+00
9.661606500805975273e+00,3.143091815661373190e+00,-3.768174856082286084e+00
8.916976963438617787e+00,4.595865530342726935e+00,-3.766752964284146632e+00
7.934978789505943375e+00,5.861071787116521215e+00,-3.766229981440661234e+00
6.385680767448454809e+00,6.718196840734033337e+00,-6.322237259890112426e+00
5.206768846845138299e+00,7.580083747052348997e+00,-6.323884181481554734e+00
4.001153995060596102e+00,8.225241448669303068e+00,-6.322387862703787498e+00
2.735638668344146041e+00,8.713631255483416993e+00,-6.321437052769596221e+00
1.416021551905580100e+00,9.010473483771415104e+00,-6.323492097569508807e+00
6.710974652200980828e-02,9.094457133881277855e+00,-6.323000002471300007e+00
-1.278714735662011659e+00,9.038643061754104480e+00,-6.323399604522403017e+00
-2.599201561219932621e+00,8.787119652231984546e+00,-6.323565959667454273e+00
-3.863505461662602336e+00,8.305622171483005189e+00,-6.322381873468336799e+00
-5.032842420151539820e+00,7.659278756705480085e+00,-6.322297425967738249e+00
-6.146081381497246809e+00,6.873700846046720159e+00,-6.323254368152984028e+00
-7.112379784584715203e+00,5.908743718721529703e+00,-6.321422108025894104e+00
-7.999001990238682858e+00,4.806996002439130500e+00,-6.322125955324422009e+00
-8.715740025548862846e+00,3.559366915330517411e+00,-6.323046905934086581e+00
-9.164735163187081923e+00,2.184929643341164685e+00,-6.322013795322320995e+00
-9.350352288867279427e+00,7.544186508895384113e-01,-6.321878942138008384e+00
-9.352081532682667842e+00,-7.523685560007847828e-01,-6.322404384646598707e+00
-9.095572703961348537e+00,-2.207130066178061956e+00,-6.323164919630179348e+00
-8.606708262941358711e+00,-3.632185810412203786e+00,-6.321835575806876051e+00
-7.957681187134701517e+00,-4.989251763471618695e+00,-6.321272958367983641e+00
-7.089160965404179393e+00,-6.260642008747914211e+00,-6.322358255794748416e+00
-6.009373644643115853e+00,-7.411707730740021205e+00,-6.322287051344189557e+00
-4.728293361840205655e+00,-8.358557900754187031e+00,-6.322930960774893805e+00
-3.320452038109290349e+00,-9.080713437028938628e+00,-6.323263511315718510e+00
-1.801285597918967696e+00,-9.544033983133845211e+00,-6.322765242101570315e+00
-2.872964455012023688e-01,-9.766722102135240391e+00,-6.323252625206083444e+00
1.224332764036019316e+00,-9.690673446495097210e+00,-6.322298172833461294e+00
2.707151156606934173e+00,-9.366932073765047662e+00,-6.322779773462148256e+00
4.119796572287647507e+00,-8.842134050434248493e+00,-6.323218161769766255e+00
5.499686926377898466e+00,-8.112947023052411666e+00,-6.322866639238899467e+00
6.772507221243731834e+00,-7.109516531547665608e+00,-6.323061562540489788e+00
7.934251206206539564e+00,-5.924200760744308347e+00,-6.323342815355113444e+00
8.791300764143295865e+00,-4.540576651886181203e+00,-6.323470585915299758e+00
9.414709883854328609e+00,-3.103099868672507533e+00,-6.323363342809591892e+00
9.753684711645092875e+00,-1.573305695414665584e+00,-6.323295170846347624e+00
9.813597612837561712e+00,1.279289921657776954e-02,-6.322392460070768827e+00
9.559496878521301255e+00,1.579654900297576603e+00,-6.322499364771739572e+00
9.111025605594555543e+00,3.049100506920015441e+00,-6.321766088847807552e+00
8.429635782477600259e+00,4.433152403719867962e+00,-6.321172068716604642e+00
7.491307166423246677e+00,5.667446360679476491e+00,-6.321229835050194978e+00
5.901942179919352327e+00,6.371383689008974116e+00,-8.876526387935156137e+00
4.875080291614754202e+00,7.165481249712798650e+00,-8.877732139045326321e+00
3.773022400964538114e+00,7.785661871750160223e+00,-8.877019373297526883e+00
2.591489078462533513e+00,8.269101397061737302e+00,-8.875903144666484224e+00
1.361067648198006186e+00,8.594428750215374890e+00,-8.876617783336316236e+00
9.022225666526076382e-02,8.683083842708478883e+00,-8.876997615896080163e+00
-1.209057481782344734e+00,8.676132496821562512e+00,-8.877837042658759614e+00
-2.468439315783907961e+00,8.450282330958394539e+00,-8.877112695607213055e+00
-3.671910816141648493e+00,7.968185214769578195e+00,-8.876559127905775171e+00
-4.797388086141384456e+00,7.356582295986299869e+00,-8.877328458827376423e+00
-5.851580471395680050e+00,6.614053603326468966e+00,-8.877571578117651185e+00
-6.773160449228122104e+00,5.667821860114588439e+00,-8.876287989467568806e+00
-7.548014311422789113e+00,4.572305928986548196e+00,-8.876142309793477736e+00
-8.185527808148670204e+00,3.376424025741341151e+00,-8.877575931440851775e+00
-8.589085688818606457e+00,2.109292205109237983e+00,-8.878191716972402503e+00
-8.703695636720681250e+00,7.547607088445589252e-01,-8.876668418209876066e+00
-8.691054573479163992e+00,-6.146841984906294964e-01,-8.877967492205264932e+00
-8.434615394367758867e+00,-1.967734223921408176e+00,-8.877858834510547581e+00
-8.022887345230113709e+00,-3.281517958979397243e+00,-8.877077036189399806e+00
-7.416900712256872197e+00,-4.563684166305598922e+00,-8.877221409460467783e+00
-6.586331897708689986e+00,-5.744642642142412825e+00,-8.876552765717036664e+00
-5.589898575942104486e+00,-6.821507486327347713e+00,-8.876886989223731206e+00
-4.397176730634932085e+00,-7.706668719799833589e+00,-8.876675910834681105e+00
-3.072373176862015054e+00,-8.374456076798237447e+00,-8.876853782366950441e+00
-1.647490724257632877e+00,-8.791351650433551157e+00,-8.877642178628883940e+00
-1.735384451029565733e-01,-8.958977170365134413e+00,-8.876775372436599199e+00
1.190815695670253804e+00,-8.867526219167443102e+00,-8.876904814870229643e+00
2.540379956446158438e+00,-8.534458286154251283e+00,-8.877671307335669226e+00
3.855824856515148724e+00,-8.028946323524957407e+00,-8.878022096242368377e+00
5.135438992620779075e+00,-7.381567898573737629e+00,-8.876897772023896849e+00
6.307430644981349310e+00,-6.491535783962907757e+00,-8.876160691752259524e+00
7.397466852349161570e+00,-5.426942234214391370e+00,-8.877469278898079352e+00
8.215513885758078061e+00,-4.144382285642565833e+00,-8.877322672226174660e+00
8.778446721617765292e+00,-2.816410810404584186e+00,-8.877473555427656038e+00
9.085572395024593462e+00,-1.391464887857378985e+00,-8.878016281180599378e+00
9.127808874639010028e+00,1.226348967601241513e-01,-8.877604350480783779e+00
8.848093439203857713e+00,1.562544638041356126e+00,-8.876807979509049318e+00
8.411311475767760726e+00,2.900017079103633488e+00,-8.876403765177252936e+00
7.743261016025988042e+00,4.232220928501001289e+00,-8.876968160663633256e+00
6.874732887834080763e+00,5.393661478169688550e+00,-8.876604771750843170e+00
5.463049407660341750e+00,5.874431084742901099e+00,-1.143287994629832305e+01
4.528611978245201897e+00,6.649940279101892671e+00,-1.143158349612852653e+01
3.505846341387514276e+00,7.215936250743224534e+00,-1.143180502864692372e+01
2.414660486452608446e+00,7.666333875192276714e+00,-1.143234210354139258e+01
1.283373480143849443e+00,8.004025816940563587e+00,-1.143171829166565345e+01
1.054933069393953204e-01,8.128646878139800691e+00,-1.143264372958545572e+01
-1.097648400640488298e+00,8.139138313312484385e+00,-1.143219330926227073e+01
-2.285341020439637383e+00,7.924333943485297738e+00,-1.143169527288454468e+01
-3.415632917150443593e+00,7.466838508122310536e+00,-1.143201290062932074e+01
-4.454787770698637850e+00,6.886573596649160578e+00,-1.143173524655646212e+01
-5.438284029273854792e+00,6.181483091187169876e+00,-1.143195528345846057e+01
-6.269726214665477748e+00,5.276043652849557120e+00,-1.143123748687559171e+01
-6.928911785294918246e+00,4.236178930565684730e+00,-1.143229861348079446e+01
-7.483930637762880700e+00,3.150477513034889654e+00,-1.143234799529837531e+01
-7.844700801296600190e+00,2.002192903618956077e+00,-1.143096333936973075e+01
-7.962831024302058580e+00,7.637981582391710766e-01,-1.143153520916704124e+01
-7.973100997158663716e+00,-4.516557184159339933e-01,-1.143144669794448376e+01
-7.753401538397477921e+00,-1.690932349643031296e+00,-1.143142936300353796e+01
-7.387471022084048045e+00,-2.885397558406188168e+00,-1.143173352126373565e+01
-6.834404841708805023e+00,-4.065782087111369236e+00,-1.143186817874646266e+01
-6.055999032139640192e+00,-5.160905062588430070e+00,-1.143132714905043024e+01
-5.156970045201835440e+00,-6.134238447763140201e+00,-1.143064298337590579e+01
-4.081591689204743467e+00,-6.958234858976360293e+00,-1.143151221573253551e+01
-2.870481107301082524e+00,-7.561144251397110772e+00,-1.143119204432327507e+01
-1.554972320710648948e+00,-7.923919742377536046e+00,-1.143119923575985553e+01
-2.246195845162407279e-01,-8.064494617719955016e+00,-1.143225396532715443e+01
1.061117402788839925e+00,-7.961738289528080159e+00,-1.143149090727958495e+01
2.284290562266714009e+00,-7.617414634207284152e+00,-1.143062205975795642e+01
3.484298618249412893e+00,-7.149828820766545689e+00,-1.143202114228063593e+01
4.647740650832139053e+00,-6.533749942580515224e+00,-1.143321393235912353e+01
5.717720421299339328e+00,-5.766208368006029872e+00,-1.143197575733244520e+01
6.679897860138472865e+00,-4.818035303980883199e+00,-1.143170133300279012e+01
7.458951454777272616e+00,-3.686778509324804887e+00,-1.143137524715813669e+01
7.960317819254621341e+00,-2.481092326161658423e+00,-1.143179419936445385e+01
8.233094035728726112e+00,-1.184891712210747405e+00,-1.143208784717872284e+01
8.273315959852174828e+00,2.241420077384679854e-01,-1.143091852262579700e+01
7.997472753782108867e+00,1.510702179137650703e+00,-1.143029337398481537e+01
7.568682176698618314e+00,2.729855727224565598e+00,-1.143130597148570970e+01
7.012834291842318990e+00,3.901150444069236833e+00,-1.143242241282703020e+01
6.308163254687972454e+00,4.947264905517779532e+00,-1.143317471341789116e+01
4.990024414375447748e+00,5.393017880706057809e+00,-1.398631335029194744e+01
4.140016235303990655e+00,6.102561482865588083e+00,-1.398484128619237765e+01
3.223962399892821740e+00,6.629682877386474438e+00,-1.398556294359459784e+01
2.224331923731963645e+00,7.035881057658038173e+00,-1.398675850525599529e+01
1.174864485948450055e+00,7.316757984061368347e+00,-1.398614510530162391e+01
1.198357888422669909e-01,7.444902700305895848e+00,-1.398634892628117932e+01
-9.841892524059151492e-01,7.458266946429533029e+00,-1.398794593707632394e+01
-2.081499927540096717e+00,7.278724976190145135e+00,-1.398785281949374770e+01
-3.112309848593437067e+00,6.881418264143802865e+00,-1.398658791943416979e+01
-4.064602012755612392e+00,6.345603588838434561e+00,-1.398621905618613326e+01
-4.953401129848440831e+00,5.678261508568310134e+00,-1.398619946167000450e+01
-5.681904155270046886e+00,4.845659001668288113e+00,-1.398572897904494994e+01
-6.277154463888343194e+00,3.906652980302688594e+00,-1.398603840410113719e+01
-6.747560135151452698e+00,2.937590264323293621e+00,-1.398673920916537128e+01
-7.062062764944642801e+00,1.905205580071469562e+00,-1.398646364080120996e+01
-7.202205631140947695e+00,8.114777548621965320e-01,-1.398608023252758770e+01
-7.273818798956406262e+00,-2.996691914739530449e-01,-1.398643323989863241e+01
-7.076647621409846600e+00,-1.409444396978369429e+00,-1.398662329054562647e+01
-6.703289236888813285e+00,-2.467951597070258796e+00,-1.398667086089607814e+01
-6.192181156355736071e+00,-3.528741566678516683e+00,-1.398644909550458593e+01
-5.488058681612562495e+00,-4.509838373054901872e+00,-1.398609065981299615e+01
-4.689581342371077710e+00,-5.368917395364938727e+00,-1.398629592985261638e+01
-3.728935747698279624e+00,-6.122911239339850376e+00,-1.398594829011005025e+01
-2.622015888619160240e+00,-6.646276242390038114e+00,-1.398581232092441518e+01
-1.462808947669633541e+00,-6.949908639542295319e+00,-1.398582761930058993e+01
-2.932143432139103778e-01,-7.058540938176168567e+00,-1.398632298852948352e+01
8.676728128172354060e-01,-6.973347068750686439e+00,-1.398663030542519081e+01
1.989305815475759687e+00,-6.639450533210597527e+00,-1.398670520719975841e+01
3.064555276502463066e+00,-6.179302609279953451e+00,-1.398612805102947654e+01
4.109757185551170089e+00,-5.663923493073984794e+00,-1.398622894812094586e+01
5.097770539516199406e+00,-4.981151782929798877e+00,-1.398663643681681812e+01
5.880708423513616445e+00,-4.139010495702272863e+00,-1.398657442495102288e+01
6.536696452119675094e+00,-3.155929488199458177e+00,-1.398630833181731781e+01
7.012878694085113551e+00,-2.108652430486492424e+00,-1.398613479969332829e+01
7.265796030302188235e+00,-9.535229476293337614e-01,-1.398554163935458128e+01
7.301098580773637714e+00,2.855783753535462433e-01,-1.398599679994262779e+01
7.077262625038415855e+00,1.428128324690324025e+00,-1.398691393368906510e+01
6.700206839974655715e+00,2.508435279592419853e+00,-1.398617835574419210e+01
6.265916294118140328e+00,3.547142391988502563e+00,-1.398617749362597351e+01
5.706275373851654287e+00,4.521056610724308200e+00,-1.398683547586053599e+01
4.411896529176623005e+00,4.876598188234439135e+00,-1.654054606428070429e+01
3.649571181732308212e+00,5.493851034794742461e+00,-1.654104379413799464e+01
2.843444425021325550e+00,5.982338465137662986e+00,-1.654083101142837720e+01
1.972786808571795891e+00,6.342599594615800918e+00,-1.653991272607525076e+01
1.057673377932228265e+00,6.545042796965424792e+00,-1.654021981424829946e+01
1.014844357526554081e-01,6.631405201120259996e+00,-1.654055633025163630e+01
-8.520897763124328783e-01,6.638905374172980878e+00,-1.654011761906987843e+01
-1.815626194569117224e+00,6.503980373658748704e+00,-1.653943924899318318e+01
-2.730980193376200571e+00,6.189749716998647067e+00,-1.654041182935792165e+01
-3.582571297833081037e+00,5.736516506941328863e+00,-1.654024327436994213e+01
-4.362395232396093725e+00,5.128606885275631910e+00,-1.653979001036651297e+01
-5.043288692314001231e+00,4.413009575876284174e+00,-1.654085139320518039e+01
-5.574310956343062173e+00,3.597094879867972050e+00,-1.654049302204630223e+01
-6.009198161630218138e+00,2.757987166770347720e+00,-1.654061944870407075e+01
-6.302634372375573335e+00,1.831818756100356937e+00,-1.654057822008462253e+01
-6.443393967968866320e+00,8.488805711600961867e-01,-1.654029240436397430e+01
-6.487364215391310474e+00,-1.393968686415154590e-01,-1.654054537504932654e+01
-6.301798245594592451e+00,-1.095961941688425423e+00,-1.653978477513436474e+01
-5.944991851816149975e+00,-2.022024171508328472e+00,-1.653996153805299585e+01
-5.474089829068674362e+00,-2.953640072927802951e+00,-1.654109910093329106e+01
-4.868095597392751550e+00,-3.799916085982833813e+00,-1.654076405014881601e+01
-4.157141645460805002e+00,-4.549610728327927234e+00,-1.654056850303404858e+01
-3.325761333838363587e+00,-5.182472071092722565e+00,-1.654110099519521171e+01
-2.356961574953185590e+00,-5.607102191438201544e+00,-1.654127365438388608e+01
-1.336223997512428152e+00,-5.821316125117145468e+00,-1.654182867487360298e+01
-2.946835266682251708e-01,-5.881663730573467141e+00,-1.654152029601623397e+01
7.083712184049195670e-01,-5.818434238038459938e+00,-1.654053056384197973e+01
1.699983853136531886e+00,-5.555168614157577345e+00,-1.653997937068641733e+01
2.632099356751033348e+00,-5.150639131784569891e+00,-1.654134758303504782e+01
3.505706513146527925e+00,-4.691646448017973370e+00,-1.654080164575363554e+01
4.367858844323778911e+00,-4.112399990122309390e+00,-1.653973507631582507e+01
5.028025640983558198e+00,-3.414307608043189557e+00,-1.654098159077608443e+01
5.539000909687477048e+00,-2.553465223950063034e+00,-1.654019169276295997e+01
5.916819497058293464e+00,-1.663065171075363224e+00,-1.654052739716456699e+01
6.223160062012713212e+00,-7.029636921069762900e-01,-1.654155022355210392e+01
6.260843041279382071e+00,3.644719025311695115e-01,-1.654013988692434367e+01
6.109975338981678661e+00,1.365442381566183583e+00,-1.654070368214226860e+01
5.838995283400523206e+00,2.301331646999837055e+00,-1.654093765239174374e+01
5.482790428154548756e+00,3.227405215074316658e+00,-1.654035618782008044e+01
5.026982964046952773e+00,4.097827768241552704e+00,-1.654031700544884487e+01
3.732694827029176210e+00,4.294541161150063679e+00,-1.909522109479613761e+01
3.081557467648194493e+00,4.807678776121472985e+00,-1.909587684354098158e+01
2.406154420842730346e+00,5.239447456513869561e+00,-1.909525887035544045e+01
1.657903959981437358e+00,5.541788465164320776e+00,-1.909531962344156852e+01
8.796397041657980642e-01,5.682110364365542843e+00,-1.909614179285409818e+01
8.753826688829861868e-02,5.743178998917513489e+00,-1.909525611240054843e+01
-7.054923195581951356e-01,5.726252032270579662e+00,-1.909504942342118028e+01
-1.517260973284340730e+00,5.631435863494092864e+00,-1.909475051464308137e+01
-2.313206182718526627e+00,5.405695646841523150e+00,-1.909452825536942200e+01
-3.026181676548162169e+00,5.024665208262550031e+00,-1.909460894603316561e+01
-3.681953466766922034e+00,4.510759478376798803e+00,-1.909462434699807432e+01
-4.284410010092213561e+00,3.933154765122787833e+00,-1.909485479087582860e+01
-4.770497630092279451e+00,3.263678541484143825e+00,-1.909515115228280280e+01
-5.197294536203443727e+00,2.543108529427368758e+00,-1.909572183658619693e+01
-5.454491780756034025e+00,1.754576720301835646e+00,-1.909496554146929981e+01
-5.611172482703058684e+00,8.869605379208411744e-01,-1.909454408258307723e+01
-5.576017927553380105e+00,4.189075935658770344e-02,-1.909539462632849904e+01
-5.409595472728518928e+00,-7.695167181186592931e-01,-1.909568345178779225e+01
-5.095604648428236239e+00,-1.559880781743688827e+00,-1.909524236008137521e+01
-4.674793048069934009e+00,-2.339919257261272811e+00,-1.909542277393645193e+01
-4.163827925611107261e+00,-3.039655805059545024e+00,-1.909559063784531929e+01
-3.570790745924656839e+00,-3.653308324028150089e+00,-1.909538889317564525e+01
-2.845922774502303021e+00,-4.168865449585011262e+00,-1.909598302981423856e+01
-2.015774546920952037e+00,-4.489848226181020863e+00,-1.909542206502829131e+01
-1.139410668463215703e+00,-4.616032890409371703e+00,-1.909437862770196048e+01
-2.809156512366773883e-01,-4.630351674214511881e+00,-1.909563316008082978e+01
5.456775369310636892e-01,-4.609728059793574140e+00,-1.909489887711876932e+01
1.383655996228939422e+00,-4.452505986514282199e+00,-1.909437568672498386e+01
2.161409827652310600e+00,-4.117563274677584317e+00,-1.909466180116968559e+01
2.877707581713998319e+00,-3.700625503724507492e+00,-1.909471241586976120e+01
3.545719488922029150e+00,-3.218796922886744127e+00,-1.909513490664373592e+01
4.085307393472050741e+00,-2.644072810023472719e+00,-1.909419472485879865e+01
4.517091950849150273e+00,-1.955576735286896684e+00,-1.909430385456982648e+01
