-7.887216770969338597e-01,-1.545580271900711722e+01,1.863198655353454924e+01
1.773136215269024873e+00,-1.554056147179475644e+01,1.863272148601969391e+01
4.298406945185064387e+00,-1.520809449674359115e+01,1.863147215199668949e+01
6.823025566166339040e+00,-1.445065002754991035e+01,1.863164496038544726e+01
9.214207881183867244e+00,-1.326791167662695869e+01,1.863256778999816632e+01
1.144433255891202350e+01,-1.168400241292731323e+01,1.863201255465694217e+01
1.339610734703150818e+01,-9.700917965860638148e+00,1.863125713217290880e+01
1.501516902295957401e+01,-7.396351852278170824e+00,1.863193964060906538e+01
1.619765151279997184e+01,-4.767354797911916187e+00,1.863147700810497298e+01
1.686620833834865607e+01,-1.985000759451942542e+00,1.863090765403240567e+01
1.699459289453566413e+01,8.810056262345469236e-01,1.863164230720707693e+01
1.667210049177695907e+01,3.832846977409751332e+00,1.863288722024651634e+01
1.582541875541566867e+01,6.700191838846924597e+00,1.863273031483222653e+01
1.451631527130523835e+01,9.383858988321350125e+00,1.863193588238361542e+01
1.275709954897961396e+01,1.174321269762726949e+01,1.863118174974898622e+01
1.062177099312025241e+01,1.368969410122059749e+01,1.863040125565017746e+01
8.158245141779346454e+00,1.516179100188687734e+01,1.863117446571454749e+01
5.465705812968794319e+00,1.606796366890282002e+01,1.863254007437235060e+01
2.713103294723085313e+00,1.663055964172943035e+01,1.863185426462809247e+01
-4.537159275173685558e-02,1.669000040528645812e+01,1.863084978756350196e+01
-2.710462957012143903e+00,1.623688335527137383e+01,1.863063460662636928e+01
-5.171426523301745348e+00,1.525546361991494493e+01,1.644573179039194954e+01
-7.281206997704477324e+00,1.414608459280203689e+01,1.644688450019157244e+01
-9.114153583637337519e+00,1.276581753155243071e+01,1.644643785006128667e+01
-1.076318291727159782e+01,1.115260973492570962e+01,1.644557712663178606e+01
-1.214080152283422542e+01,9.302433023421395220e+00,1.644608626044292521e+01
-1.319194250098612819e+01,7.288516762776107605e+00,1.644626291836779330e+01
-1.392870521250242355e+01,5.165680858015070598e+00,1.644508923391337163e+01
-1.441726800732724101e+01,3.038849192994748982e+00,1.644480024034071874e+01
-1.459377660260747689e+01,9.530277123353645408e-01,1.644604073304372349e+01
-1.445550212533653678e+01,-1.100105428209760206e+00,1.644639197765039640e+01
-1.405834564074451620e+01,-3.064520236916262519e+00,1.644543573458466312e+01
-1.346802779792710858e+01,-4.913716021060833050e+00,1.644626096179658603e+01
-1.270239989246615053e+01,-6.724953754309687781e+00,1.644627272613627156e+01
-1.174924637810249095e+01,-8.435053754895902145e+00,1.644554148867487342e+01
-1.058788374423656187e+01,-1.005976829494097124e+01,1.644470151811091085e+01
-9.113289586666475373e+00,-1.165344416429733876e+01,1.644569927604456439e+01
-7.412035281135441522e+00,-1.303215428065933246e+01,1.644629284874782016e+01
-5.533123274725211260e+00,-1.429516698799035268e+01,1.644592797927751704e+01
-3.296075430710823539e+00,-1.528019764156609028e+01,1.644599167009697993e+01
-7.527710893577417295e-01,-1.578530758340043505e+01,1.644631000382547725e+01
1.898374442844408705e+00,-1.593366167532943756e+01,1.644592002601776670e+01
4.506970321382571143e+00,-1.559140097841117978e+01,1.644697374811503110e+01
7.086978933271391945e+00,-1.482424201025208355e+01,1.644566359813708800e+01
9.567761339677673504e+00,-1.361605183934930707e+01,1.644543471859208594e+01
1.185711079444127058e+01,-1.198555532604396667e+01,1.644592204214115228e+01
1.382727713252333857e+01,-9.924031587128306242e+00,1.644577129134419025e+01
1.543638637836011540e+01,-7.555470971215860310e+00,1.644575323616406592e+01
1.664114615341512504e+01,-4.840079212630798544e+00,1.644619652908207641e+01
1.726701844375673645e+01,-1.981758588954258826e+00,1.644704232610742523e+01
1.737639422692284086e+01,9.220858667083309257e-01,1.644718615419137819e+01
1.698114172304554970e+01,3.936585944687131189e+00,1.644651594935517736e+01
1.606364454615443194e+01,6.822313681258418860e+00,1.644568137495975080e+01
1.468533833541810729e+01,9.523768715579178590e+00,1.644646607604526523e+01
1.285545389017639017e+01,1.190448485023922842e+01,1.644685967576899799e+01
1.066021759493933274e+01,1.378709576515342228e+01,1.644620648847221744e+01
8.138978998394140518e+00,1.517433217191242001e+01,1.644581062413379868e+01
5.455650905587901889e+00,1.601915288096972390e+01,1.644630851308100716e+01
2.713896445796661894e+00,1.651677031417645836e+01,1.644637800530537319e+01
-4.967235847306383789e-02,1.656257295064297352e+01,1.644596759355845705e+01
-2.727034638228746033e+00,1.610224730208603106e+01,1.644549561791388825e+01
-5.109806193586043932e+00,1.510009542844487029e+01,1.426066328675397088e+01
-7.261851291093799787e+00,1.398028677408417231e+01,1.426021009389582872e+01
-9.114155431190251733e+00,1.259829954711671363e+01,1.425997346131621768e+01
-1.070842964424395305e+01,1.100960703860431344e+01,1.426059306661884207e+01
-1.206382435885577564e+01,9.216146880751065140e+00,1.426116660713570106e+01
-1.311185188838586946e+01,7.235618735046897676e+00,1.426033779052256278e+01
-1.382916329971188318e+01,5.114153680023258985e+00,1.426132629283714515e+01
-1.432553132427187492e+01,3.007548882251628086e+00,1.426115219354311314e+01
-1.452660886620058633e+01,9.009611816352176561e-01,1.426092963450374640e+01
-1.439264115233262409e+01,-1.164689463620765864e+00,1.426150812429813186e+01
-1.401510149202960420e+01,-3.166681859068363636e+00,1.426069347520182973e+01
-1.342256583520708801e+01,-5.060395716358151219e+00,1.426008272085503137e+01
-1.266023069312040228e+01,-6.925045138992174998e+00,1.426046807390913429e+01
-1.169952824308221651e+01,-8.643641354608847749e+00,1.426096567335349974e+01
-1.053074856398471226e+01,-1.027981686033377784e+01,1.426103005960086811e+01
-9.032244890158198203e+00,-1.189158086490584587e+01,1.426112791129941826e+01
-7.337912833453316352e+00,-1.324708796538562972e+01,1.426105593776451741e+01
-5.411573193156577588e+00,-1.451160889747876404e+01,1.426202829335735522e+01
-3.163642420528850252e+00,-1.541083222109262607e+01,1.426096185697332253e+01
-6.442800064450917574e-01,-1.594391727430067007e+01,1.425959778750510054e+01
2.046158976975251065e+00,-1.611183097847411005e+01,1.426114678053435725e+01
4.688867116027391369e+00,-1.580018359964254415e+01,1.426071680076108095e+01
7.326771679694578765e+00,-1.500619770836182987e+01,1.426103777846499732e+01
9.864107709098323795e+00,-1.376788932206584448e+01,1.426113974849630850e+01
1.218422532545475079e+01,-1.208552898978443579e+01,1.426065000711242625e+01
1.412832711064487157e+01,-9.949283070347853197e+00,1.426005870703695066e+01
1.566070530401484007e+01,-7.509196604516665374e+00,1.425947457754752890e+01
1.677643521288753092e+01,-4.769755214825218026e+00,1.426085776168682884e+01
1.735783607493456415e+01,-1.885341492289843046e+00,1.426124671679213485e+01
1.740774870329793700e+01,1.036904861294006608e+00,1.426033655071615946e+01
1.694914604323262353e+01,4.027581279917438195e+00,1.426085424556102055e+01
1.602203858654984359e+01,6.875656084575353155e+00,1.426115765670474467e+01
1.461379279372413009e+01,9.563963434982873935e+00,1.426124467457015399e+01
1.275860068213423304e+01,1.187505557884572838e+01,1.426064502644471688e+01
1.051699058346662774e+01,1.371648105325916411e+01,1.426024159812710401e+01
8.017290557365580383e+00,1.508382761540574357e+01,1.426041672355818157e+01
5.360215172751049195e+00,1.589390101043897019e+01,1.426041191211157511e+01
2.651074470612089229e+00,1.633347919366226364e+01,1.426053419504557063e+01
-5.472702141692309397e-02,1.634699016108079306e+01,1.426079447585604321e+01
-2.679898185606367278e+00,1.590601791216159988e+01,1.426090068986643722e+01
-4.980501985248164232e+00,1.488704453219956392e+01,1.207581900614522752e+01
-7.154950709087486871e+00,1.378100671824337553e+01,1.207465117826900425e+01
-9.036478285396011501e+00,1.237850762720950293e+01,1.207568170870445989e+01
-1.059650068083461605e+01,1.081336489093907360e+01,1.207630084171138130e+01
-1.192905051397669958e+01,9.084687183135073951e+00,1.207538638961588973e+01
-1.295222570704207143e+01,7.138536751061129060e+00,1.207617063928946699e+01
-1.366604531979666781e+01,5.068445071164197735e+00,1.207575816551255166e+01
-1.414641624360625904e+01,2.962472115253450333e+00,1.207499995304695162e+01
-1.433661063972194327e+01,8.633528529843204069e-01,1.207536365445765192e+01
-1.424033944268140672e+01,-1.209392789735726836e+00,1.207557988902903645e+01
-1.386697169183628375e+01,-3.241986156813567277e+00,1.207423961870719253e+01
-1.330398071213867794e+01,-5.162116157286457785e+00,1.207426598756086022e+01
-1.254252306775073755e+01,-7.023717001200710186e+00,1.207577857672767330e+01
-1.158419553131145818e+01,-8.765959799237345251e+00,1.207600967447184637e+01
-1.039802677485411486e+01,-1.042006955321387807e+01,1.207483172737131660e+01
-8.928455767288177469e+00,-1.199465738812271987e+01,1.207543389603128681e+01
-7.231021499563107469e+00,-1.338810172948165622e+01,1.207518856283594033e+01
-5.249786876032003669e+00,-1.457032936981733329e+01,1.207497917471258830e+01
-3.010296788524584599e+00,-1.538317276928108157e+01,1.207535408897175699e+01
-5.214393278449040992e-01,-1.596324894791944615e+01,1.207535497813687009e+01
2.177196080780104737e+00,-1.612857079882568812e+01,1.207522751809007922e+01
4.830219610146529341e+00,-1.584286762300363272e+01,1.207553300232900106e+01
7.482684598053016778e+00,-1.505180942164388469e+01,1.207543290521046053e+01
1.006416227877996938e+01,-1.377574604032205308e+01,1.207477034433545349e+01
1.238458628080132939e+01,-1.205752964623274259e+01,1.207469652753856337e+01
1.430228463586991694e+01,-9.870434380170728161e+00,1.207502441175458330e+01
1.575369336400889608e+01,-7.352678303570975515e+00,1.207534422132176388e+01
1.681744226389602659e+01,-4.597130934849689154e+00,1.207470726458261900e+01
1.737301854457125216e+01,-1.721035228232128844e+00,1.207475809742739159e+01
1.738369665876122383e+01,1.210157671650920364e+00,1.207552118372164607e+01
1.689396009068880744e+01,4.145995400338346570e+00,1.207522215320602932e+01
1.592141321457584979e+01,6.941386348723375121e+00,1.207560346818078223e+01
1.450444878446133146e+01,9.551739398038927575e+00,1.207506627756353446e+01
1.259509091618700261e+01,1.181698547674274380e+01,1.207492980940127936e+01
1.035328504110422365e+01,1.361824293238906058e+01,1.207501922910539527e+01
7.857574596322884020e+00,1.493872203775831942e+01,1.207534568485759685e+01
5.232333791829630876e+00,1.573048154720256342e+01,1.207487002885154403e+01
2.584019507294492257e+00,1.610258881265459507e+01,1.207414730797778368e+01
-4.692719753924912141e-02,1.607999621728514228e+01,1.207451456445644311e+01
-2.574675863575860646e+00,1.566795845536045562e+01,1.207558556998392696e+01
-4.798450214671730052e+00,1.462249017437941845e+01,9.889921136105678912e+00
-6.974008873452821611e+00,1.352713141141472697e+01,9.889579489679654500e+00
-8.852931929134030042e+00,1.213803615102188616e+01,9.890599666027920733e+00
-1.040996862892886199e+01,1.058867201444406447e+01,9.890004074371582021e+00
-1.170482346537210994e+01,8.895186942025040011e+00,9.888774493210203076e+00
-1.271799059405211629e+01,7.004919823548152458e+00,9.889291176229372482e+00
-1.341309235182756154e+01,4.985196537932591987e+00,9.889137606078534759e+00
-1.386146024934083698e+01,2.921157903039569348e+00,9.890041243544768435e+00
-1.406659461327316762e+01,8.312105614107228035e-01,9.889793320122377551e+00
-1.400577806576065498e+01,-1.219311724120940355e+00,9.888614611538509180e+00
-1.368396020226615484e+01,-3.227974015454972090e+00,9.889215392616204525e+00
-1.314499257321964265e+01,-5.162974230794984187e+00,9.890151550000931380e+00
-1.241467722544333085e+01,-7.016215748004910324e+00,9.889462314375089491e+00
-1.147877128414270942e+01,-8.778888150527059508e+00,9.888875881453353500e+00
-1.028776855577155480e+01,-1.045526385687183435e+01,9.888674796840501102e+00
-8.828007905637825559e+00,-1.201529193468428858e+01,9.888794945700796646e+00
-7.137333369908496650e+00,-1.339887692621495496e+01,9.890377675518317702e+00
-5.122374374437075772e+00,-1.448731389521087110e+01,9.889127373970696411e+00
-2.855278696769262048e+00,-1.525955440781674177e+01,9.889605943455970660e+00
-4.022390303649476806e-01,-1.585134127779973667e+01,9.890409785319100422e+00
2.221283655719235028e+00,-1.601588014257826487e+01,9.888703004358010418e+00
4.876333872833786387e+00,-1.572942475377332272e+01,9.889197131571359378e+00
7.562152046080268697e+00,-1.494691187659307019e+01,9.889984347333850678e+00
1.013589708756906660e+01,-1.367133604458143026e+01,9.889847537126641441e+00
1.241253011990573540e+01,-1.192965174096701730e+01,9.889624109960656995e+00
1.434959927708523075e+01,-9.727695415143053026e+00,9.889119588775859171e+00
1.579260857789094352e+01,-7.164283645305869364e+00,9.889741999423437235e+00
1.681588263143296302e+01,-4.431295151791696085e+00,9.889512700670728407e+00
1.736671519730249358e+01,-1.572975114788455642e+00,9.888878969917827888e+00
1.739148275341332095e+01,1.383770427049382690e+00,9.889223985228371205e+00
1.686673937612248508e+01,4.268082135463602711e+00,9.889259831215424512e+00
1.586185842385964939e+01,7.030185373140417582e+00,9.888370908177863683e+00
1.439985720825192672e+01,9.569870304955518492e+00,9.888752861675087047e+00
1.249538467546280707e+01,1.176875212558419292e+01,9.889578416976007702e+00
1.020127128289125373e+01,1.352090876462351154e+01,9.889925868544921173e+00
7.721650994019168657e+00,1.479522558454115710e+01,9.890064409699455439e+00
5.140963320820692850e+00,1.555604448659942385e+01,9.889907797919160970e+00
2.520246566376568964e+00,1.586241069116412916e+01,9.889718701939042234e+00
-2.826497302998731698e-02,1.578564435439320590e+01,9.889956895039256679e+00
-2.475856886961315340e+00,1.537825300562030684e+01,9.890071967535590147e+00
-4.590147139889161565e+00,1.430362388366304494e+01,7.704005555847776243e+00
-6.714107826974784032e+00,1.320362269862224380e+01,7.703943275780173572e+00
-8.568153361728107598e+00,1.185837563073475032e+01,7.704384747018228730e+00
-1.011461558808687577e+01,1.032731875955168555e+01,7.704133091485577012e+00
-1.137267157493825209e+01,8.639507953334687684e+00,7.703978304230841623e+00
-1.239302375983434779e+01,6.815060994448526088e+00,7.703953538186189220e+00
-1.312058377809329635e+01,4.879798959165849048e+00,7.703688964965103914e+00
-1.354042792500638548e+01,2.868330891640749059e+00,7.703791132150834997e+00
-1.374763962540021467e+01,8.332645463588246315e-01,7.703888179323060470e+00
-1.372341990784373600e+01,-1.182078761482173945e+00,7.703817352576382227e+00
-1.346005770470587315e+01,-3.150812393617347773e+00,7.703578473099540247e+00
-1.298002736677448432e+01,-5.073825378375317108e+00,7.703700536929204645e+00
-1.227997745701551224e+01,-6.933289099151319412e+00,7.703064199387609001e+00
-1.135277218087813722e+01,-8.705178475505610081e+00,7.703233722825888918e+00
-1.017775179311963640e+01,-1.038006073103411531e+01,7.704214818343426252e+00
-8.710282397133127574e+00,-1.192297961402547912e+01,7.703563118413992328e+00
-6.977305617678958960e+00,-1.326914096705099944e+01,7.703566438922500481e+00
-4.953522527512031814e+00,-1.431696518527983386e+01,7.705245790873236800e+00
-2.703930505231319614e+00,-1.508997543203377845e+01,7.704563348472642126e+00
-2.940955859908154224e-01,-1.564354156100407778e+01,7.704270961532739825e+00
2.215890379155244005e+00,-1.578139958693398626e+01,7.704827033549845439e+00
4.869212460462065017e+00,-1.549171139736225911e+01,7.704338258801032069e+00
7.540081572817448397e+00,-1.472101790472765792e+01,7.704190079546106240e+00
1.006693206163949839e+01,-1.345083674799923834e+01,7.704476908558754999e+00
1.230119299784693432e+01,-1.169926578083570590e+01,7.704456962524431241e+00
1.422052626326525981e+01,-9.493755780966820268e+00,7.704026344554338657e+00
1.570506709221925234e+01,-6.943144720551593707e+00,7.704219560058100491e+00
1.668996357908876860e+01,-4.268092845385052847e+00,7.704641843076550423e+00
1.724256792392100834e+01,-1.413991413439177336e+00,7.704630704850663037e+00
1.727539772779135063e+01,1.549755035317437191e+00,7.704034963070538033e+00
1.672884238247736732e+01,4.351676599345276841e+00,7.704110697210571956e+00
1.569660726743676449e+01,7.060564700362228052e+00,7.704051014983527068e+00
1.421432510577180963e+01,9.528637730694372365e+00,7.703203035925085373e+00
1.229307682870891938e+01,1.166095695545344313e+01,7.703533853881369353e+00
1.002840001551624738e+01,1.336949232707320689e+01,7.704418484114349042e+00
7.559291102997359069e+00,1.459302694299877778e+01,7.704208159662174538e+00
4.999468733795265685e+00,1.533001846887841779e+01,7.703755031521065000e+00
2.455035540063585486e+00,1.558796656134401815e+01,7.703805127714562495e+00
-6.599659830019533047e-03,1.547002694317687244e+01,7.704432737169744527e+00
-2.352178876280961006e+00,1.504914515667907970e+01,7.704430395489841210e+00
-4.383610399443897521e+00,1.390073247892448016e+01,5.518516686230909407e+00
-6.421303232470261690e+00,1.282991027977541876e+01,5.517540447960212369e+00
-8.230950077908797624e+00,1.152987922056006553e+01,5.517788863540848077e+00
-9.749248508969964533e+00,1.004084708984073515e+01,5.518722328976464198e+00
-1.100421141584515361e+01,8.375500412134954331e+00,5.519400500273015098e+00
-1.200163665662319445e+01,6.616721979798392717e+00,5.519557895418015114e+00
-1.275347373927782080e+01,4.767693011914304613e+00,5.518392390513444212e+00
-1.317841991643507171e+01,2.821738231250423112e+00,5.518332825361190963e+00
-1.340210671692874556e+01,8.430207292346416637e-01,5.518866697942447885e+00
-1.342455876385412950e+01,-1.114909124914811756e+00,5.518788840334225121e+00
-1.323868568452898486e+01,-3.031055426520541829e+00,5.518490674696039378e+00
-1.280567376440849614e+01,-4.945802384925768180e+00,5.519451424905995829e+00
-1.213445086560429687e+01,-6.781369804763191844e+00,5.519596178493586969e+00
-1.121909288749210276e+01,-8.564978731762360908e+00,5.518900285937644590e+00
-1.004743679567738113e+01,-1.025146965684139033e+01,5.518190214729084886e+00
-8.599854264361777467e+00,-1.176540650516256470e+01,5.518742298389001100e+00
-6.833454403336026495e+00,-1.305066495078495237e+01,5.519324518065711338e+00
-4.821588143103848978e+00,-1.406292892078831436e+01,5.518451315602444396e+00
-2.586883111024497417e+00,-1.485466777451187781e+01,5.518176510711835903e+00
-2.325038770266658616e-01,-1.535957214166662332e+01,5.518258876800624435e+00
2.220013170264014235e+00,-1.546331702019335097e+01,5.518384727653871558e+00
4.833974392749671445e+00,-1.515748438352118299e+01,5.519117007531436414e+00
7.474545452880800411e+00,-1.438267096600636386e+01,5.518845112943154163e+00
9.929105920221058312e+00,-1.311934000310674620e+01,5.517818939107316467e+00
1.210715227210636336e+01,-1.137420143068482759e+01,5.518086764546248801e+00
1.396672779367905903e+01,-9.181319936336496568e+00,5.519202318141586794e+00
1.546152503763915398e+01,-6.692577753510832395e+00,5.518787337194009268e+00
1.643033131048272111e+01,-4.033484270249613424e+00,5.519696032614377579e+00
1.692314800816398090e+01,-1.228195271651726372e+00,5.519114349304689249e+00
1.696148580664409877e+01,1.669524350462907591e+00,5.518039856604849192e+00
1.641407039825136138e+01,4.404905168661725767e+00,5.519278405876995031e+00
1.538241428916351694e+01,7.030509765453567539e+00,5.518501448007759436e+00
1.388202095613826081e+01,9.423501715510672838e+00,5.518766699042791046e+00
1.198990213417650352e+01,1.148074802614728185e+01,5.518709419970327268e+00
9.759355724950008693e+00,1.314337128783784081e+01,5.517958155435525036e+00
7.353052422508333130e+00,1.430982882143377388e+01,5.519130880995914090e+00
4.857443029496335107e+00,1.501984427940958255e+01,5.518247500342284617e+00
2.360355429459481513e+00,1.523064949803707790e+01,5.518388595702726107e+00
-5.036548040067145848e-03,1.509662114901782282e+01,5.519395105469606655e+00
-2.249531378806050697e+00,1.464846227217270425e+01,5.519353469789344935e+00
-4.209615449596235237e+00,1.343825495468722409e+01,3.332739232155388809e+00
-6.140228627516392201e+00,1.243080384594812315e+01,3.333042523543767288e+00
-7.882105019252404254e+00,1.120566030111869260e+01,3.333195921889921198e+00
-9.384759125144437775e+00,9.770197624853583562e+00,3.333182692297476102e+00
-1.060313122977833800e+01,8.147778863396331062e+00,3.332973238621942169e+00
-1.158648495446785809e+01,6.460070678553852197e+00,3.332756352193966709e+00
-1.237196419856240581e+01,4.689354570320703353e+00,3.332831542890982934e+00
-1.282425095211987554e+01,2.810416714793497306e+00,3.332990050781262426e+00
-1.308124837774088611e+01,8.989851334585470255e-01,3.332585836407968127e+00
-1.314108477359431681e+01,-9.848124219264171586e-01,3.332437682514365118e+00
-1.300473761040186815e+01,-2.886539664270799221e+00,3.332821990068453477e+00
-1.262734168524201550e+01,-4.779693965799681088e+00,3.332984603586420125e+00
-1.197250918137552844e+01,-6.607516763372668578e+00,3.332959831601067346e+00
-1.107145872106611151e+01,-8.373423715253650812e+00,3.332388401647930376e+00
-9.894384838803180315e+00,-1.007115226072476588e+01,3.332122338424530206e+00
-8.457533700714682467e+00,-1.154954811283417548e+01,3.333459085607018313e+00
-6.687710035916354379e+00,-1.280126245643062433e+01,3.333648348923490268e+00
-4.691373980574209845e+00,-1.379773053277890327e+01,3.332336064090729799e+00
-2.487685412435603816e+00,-1.459679326577844094e+01,3.331920049636770464e+00
-1.557421465915851400e-01,-1.506025502167803509e+01,3.331899970587497872e+00
2.242833638735946877e+00,-1.513213409306563051e+01,3.332255558180768240e+00
4.804277226186072447e+00,-1.478012720701537575e+01,3.332492932708403632e+00
7.337626836777146444e+00,-1.399809018994428911e+01,3.331437651886589357e+00
9.730983454131759913e+00,-1.272749816825611013e+01,3.331559434772723538e+00
1.183803276490163370e+01,-1.099787562482696934e+01,3.332619231683758620e+00
1.362225010454401541e+01,-8.832978463859705087e+00,3.332978488088136793e+00
1.508552076152189336e+01,-6.402434894112817965e+00,3.332456803470247753e+00
1.603384285307641832e+01,-3.782242918883110150e+00,3.332655540463682620e+00
1.649328297367144458e+01,-1.022574793518133518e+00,3.332448384990488677e+00
1.646383634388292094e+01,1.747183835481530778e+00,3.332192453339233307e+00
1.594031810923508630e+01,4.406302496694383564e+00,3.332821001603481825e+00
1.491874262866707923e+01,6.967135495713653981e+00,3.332637650746957281e+00
1.343910603177350538e+01,9.258708802009898875e+00,3.332473580626898801e+00
1.160012316874979277e+01,1.123722897653581043e+01,3.332936768275898576e+00
9.418335785933921400e+00,1.283090887621952092e+01,3.333534722844415210e+00
7.090526965056853648e+00,1.395759815913140400e+01,3.332998572623418365e+00
4.675690406896522155e+00,1.460715311252787885e+01,3.332052362254875000e+00
2.278229227292232650e+00,1.481241711758884705e+01,3.331495444498725700e+00
-1.507782782704580882e-02,1.464713737809627503e+01,3.332000667501005875e+00
-2.151794371878661849e+00,1.417421894751127276e+01,3.332440577721964559e+00
-4.056042238103863440e+00,1.294795226058120363e+01,1.147362522110394911e+00
-5.858643799983952682e+00,1.199555751911707624e+01,1.148024713221937221e+00
-7.514545438337318473e+00,1.086431980660719887e+01,1.147352207665300217e+00
-8.995676213095087803e+00,9.491548894376510503e+00,1.146928265658002877e+00
-1.018884138402854056e+01,7.968882221563978518e+00,1.147693141350233814e+00
-1.117752823458270584e+01,6.330674738785433853e+00,1.147771718170902844e+00
-1.197017607337727263e+01,4.631735372557431951e+00,1.148175966540441184e+00
-1.246247305156018115e+01,2.832431454186493447e+00,1.147713539571917130e+00
-1.273324301455450147e+01,9.948998428228570390e-01,1.147390819697419406e+00
-1.283154480164071565e+01,-8.344366821551041369e-01,1.147198253497074605e+00
-1.275508301317510451e+01,-2.720061940303017956e+00,1.147378326869831655e+00
-1.240968293743078377e+01,-4.595196428239030517e+00,1.148779176116746958e+00
-1.177492253450671456e+01,-6.410080200737277245e+00,1.147265180237133420e+00
-1.089292210149806017e+01,-8.178220503466565816e+00,1.146684188205314925e+00
-9.714625135522487298e+00,-9.843681160865148883e+00,1.147862922284700105e+00
-8.283495958385334035e+00,-1.127910762142478518e+01,1.147557592948521554e+00
-6.528008475814085720e+00,-1.252637807974809903e+01,1.148280005958295380e+00
-4.566579971197243459e+00,-1.351837635539263971e+01,1.146772617980354125e+00
-2.418191744718804159e+00,-1.427842360123620224e+01,1.147037191647874099e+00
-1.233727472177328366e-01,-1.471127947619804921e+01,1.148450089163860932e+00
2.244381951600606939e+00,-1.476219411966672723e+01,1.146717889575019189e+00
4.755997734497406704e+00,-1.438633358927578421e+01,1.146389814144048502e+00
7.185796208604119606e+00,-1.357355671121725749e+01,1.146349660772368217e+00
9.479032152775161535e+00,-1.231274167770882499e+01,1.146084631474866500e+00
1.152461842213380905e+01,-1.059430075121714054e+01,1.146639809133299437e+00
1.324273347496948183e+01,-8.483777318633407560e+00,1.147436754961664196e+00
1.460239213403968073e+01,-6.109301498321760171e+00,1.147585068660321950e+00
1.549408072056932184e+01,-3.530443750631886424e+00,1.147213578793879751e+00
1.589604170333267419e+01,-8.626213239484794570e-01,1.147146544780318411e+00
1.585458475915325316e+01,1.786671788941081473e+00,1.147519206184362872e+00
1.533699278495501517e+01,4.352666164750330857e+00,1.147660533871469157e+00
1.435789904001602579e+01,6.803986597231811650e+00,1.147747003735359872e+00
1.292029430121675304e+01,9.018961769984247923e+00,1.147929804880019944e+00
1.112687966102505754e+01,1.090731284186211880e+01,1.147250610708210994e+00
9.049526772801215202e+00,1.242041318593019028e+01,1.146590979100769125e+00
6.822392391727193584e+00,1.347963523857556289e+01,1.147349958212358745e+00
4.500725881770890169e+00,1.412095270398528690e+01,1.147860061393795039e+00
2.184964823953820634e+00,1.432029696240314109e+01,1.147671028221274092e+00
-3.350506140786535525e-02,1.413348588239110626e+01,1.147018810846745840e+00
-2.109545206297717357e+00,1.367678771248176517e+01,1.146864599975345067e+00
-3.914150718529918471e+00,1.244080743191241467e+01,-1.037015808423597418e+00
-5.605520227647450504e+00,1.156043982991991470e+01,-1.037583321994277830e+00
-7.168037974629442033e+00,1.048218862718211852e+01,-1.037232252674136879e+00
-8.566787015924290927e+00,9.197601365714229260e+00,-1.037511145396623258e+00
-9.756837962227628225e+00,7.763606329664789918e+00,-1.038489573689698409e+00
-1.077137023311754938e+01,6.212626493661970173e+00,-1.038259970493450313e+00
-1.154704890230343928e+01,4.572426671000870080e+00,-1.037218679946787736e+00
-1.207737210877068179e+01,2.837061336475499296e+00,-1.037884906887438952e+00
-1.236816285622973055e+01,1.079974022319799332e+00,-1.038773635716177202e+00
-1.252350681605379989e+01,-7.133032159914360903e-01,-1.038017873094882138e+00
-1.246433768266807363e+01,-2.556820270261741967e+00,-1.037580976473305494e+00
-1.214232581975888614e+01,-4.412919401317497048e+00,-1.037450552552085625e+00
-1.153282574770055824e+01,-6.221988715976607409e+00,-1.037978132178882351e+00
-1.063917906958238646e+01,-7.948887990609897258e+00,-1.037876439364421532e+00
-9.457771807747102244e+00,-9.586534535581876071e+00,-1.037713548448292000e+00
-8.047253176738161429e+00,-1.095902901743140490e+01,-1.038376621330630023e+00
-6.330394596344202540e+00,-1.222459884025656685e+01,-1.038507623882874986e+00
-4.421950268829082376e+00,-1.320432119982877417e+01,-1.037790130463924321e+00
-2.332014509696296756e+00,-1.388966873104375033e+01,-1.037046012949957241e+00
-1.130620573546128327e-01,-1.428319568026511632e+01,-1.037079743036257495e+00
2.208462235895781056e+00,-1.431620492084214114e+01,-1.038580189738464110e+00
4.634250790799341324e+00,-1.393690947561952953e+01,-1.038351375150081246e+00
6.974460618940645062e+00,-1.312018454161890979e+01,-1.038235112172187780e+00
9.172297215737353682e+00,-1.186548032423710097e+01,-1.038253553780299709e+00
1.112814598108418984e+01,-1.018617018336993851e+01,-1.037398068638473392e+00
1.278221551421060553e+01,-8.130765470300314490e+00,-1.037948482937101069e+00
1.402912776543046292e+01,-5.813091473351821747e+00,-1.038628284544123925e+00
1.484710216245086301e+01,-3.314281539031933121e+00,-1.038454985663028074e+00
1.520232511721847501e+01,-7.401441174030782832e-01,-1.037493722188104872e+00
1.511795083583898425e+01,1.789319512332079753e+00,-1.037021093030009444e+00
1.462521196310569138e+01,4.243836665682362508e+00,-1.037420110293389097e+00
1.370170716818865309e+01,6.567310192014157444e+00,-1.038320774908723099e+00
1.232535446512519783e+01,8.686274906128200968e+00,-1.038560474482007834e+00
1.060136717292778386e+01,1.050204566914528748e+01,-1.037713699558585168e+00
8.647979392636516494e+00,1.193767050562941279e+01,-1.037739513398457269e+00
6.535047272007370012e+00,1.293553109288574277e+01,-1.038647927001605575e+00
4.319380085837285499e+00,1.356403212920163526e+01,-1.037720588976103864e+00
2.110503006784628433e+00,1.375622676021815671e+01,-1.038031629885615370e+00
-3.756156289465550913e-02,1.357575461773404868e+01,-1.038226546130681882e+00
-2.052232088328846515e+00,1.313270308623237881e+01,-1.037417563425018896e+00
-3.763628957994892055e+00,1.191974114267468643e+01,-3.223269152077301580e+00
-5.334900819902498981e+00,1.110021448004583888e+01,-3.224090450431269073e+00
-6.819448978762904012e+00,1.007683508070316414e+01,-3.223203163001330029e+00
-8.160798480940059108e+00,8.869279140266566941e+00,-3.222917937866878191e+00
-9.330336310968043279e+00,7.539423911655154242e+00,-3.224187310591947853e+00
-1.033489982405533247e+01,6.046452825790263219e+00,-3.224723855313726073e+00
-1.110565504789609648e+01,4.463112430161221056e+00,-3.224718739201463791e+00
-1.164413716515557162e+01,2.814411330818235690e+00,-3.223498810814306559e+00
-1.198472618169761716e+01,1.101852447938192370e+00,-3.222397251170383115e+00
-1.213746026760214036e+01,-6.348576165613515343e-01,-3.222710378589100255e+00
-1.210675787676598780e+01,-2.454510215996981159e+00,-3.223011473097592283e+00
-1.179310738012708093e+01,-4.259737930818565665e+00,-3.223327404080694070e+00
-1.118414842578896184e+01,-6.031676299024468335e+00,-3.223451860399506597e+00
-1.029159230156199101e+01,-7.727086561869247916e+00,-3.223557684468114637e+00
-9.117535117693176261e+00,-9.289634952420602332e+00,-3.223905362039850786e+00
-7.747863508271325195e+00,-1.060811333328875072e+01,-3.223962347659343308e+00
-6.068645480896033284e+00,-1.184396534242889665e+01,-3.224030934182311903e+00
-4.209162614695356019e+00,-1.279361129559437416e+01,-3.223960278791647927e+00
-2.216508229893936921e+00,-1.342276898045548350e+01,-3.223532395111609272e+00
-1.077321437496916445e-01,-1.374415897723408087e+01,-3.223838430799654819e+00
2.135047066270121086e+00,-1.375265417659197098e+01,-3.224020639418128553e+00
4.476477095561619102e+00,-1.337937669221370385e+01,-3.223581721239428433e+00
6.676999454508655063e+00,-1.257551759626854171e+01,-3.223382677397231166e+00
8.766094506509769957e+00,-1.134566240382587665e+01,-3.223471893229443719e+00
1.065405626886052737e+01,-9.723165367909917478e+00,-3.223283927462201159e+00
1.220335390255359265e+01,-7.767061906892196887e+00,-3.223568744700647137e+00
1.335082676257576750e+01,-5.523548591501973526e+00,-3.223307688163651097e+00
1.409146826912364858e+01,-3.116907315327402728e+00,-3.223652791378141202e+00
1.440435758889876894e+01,-6.654725973076693890e-01,-3.224180042037408711e+00
1.430812718029242347e+01,1.750276286079534671e+00,-3.223827041041190444e+00
1.383060773958535705e+01,4.090790351615336107e+00,-3.223485074940030781e+00
1.295073908355261594e+01,6.273560299091551329e+00,-3.223868104916432831e+00
1.164159101307979327e+01,8.259132251054126073e+00,-3.224083995228994581e+00
1.002936354538468500e+01,9.974330787385445873e+00,-3.223876319865380147e+00
8.196424770304014729e+00,1.133805266157895453e+01,-3.223364348107812472e+00
6.200297536149831146e+00,1.227924814239089102e+01,-3.223132579682798760e+00
4.118565691997103428e+00,1.289886412943009297e+01,-3.223776456083089936e+00
2.020642511697290367e+00,1.310588812346836995e+01,-3.223827503347344248e+00
-2.849321423622086513e-02,1.297360567431764444e+01,-3.223432815202388113e+00
-1.967646926192302637e+00,1.255166230218874190e+01,-3.223017348014349359e+00
-3.539506845871448704e+00,1.132086945078758866e+01,-5.408856379063217368e+00
-5.046021231311445199e+00,1.057244010238394338e+01,-5.409291032860941151e+00
-6.463941945831631841e+00,9.617269666897856339e+00,-5.408954587425860439e+00
-7.758709553642304080e+00,8.484362450401130573e+00,-5.408967375041743075e+00
-8.883188738269678808e+00,7.244759339828769740e+00,-5.408981093011719032e+00
-9.875000356562928516e+00,5.807458080254735755e+00,-5.408452244177154533e+00
-1.062735691741331223e+01,4.278695843605707871e+00,-5.408505503473337583e+00
-1.118209155754752260e+01,2.698559736981668955e+00,-5.409764801236564224e+00
-1.154226626469583117e+01,1.035218634666310145e+00,-5.409925714472083591e+00
-1.168470372288320647e+01,-6.623175877743996409e-01,-5.408920483184481043e+00
-1.163686967519834781e+01,-2.399484344356310750e+00,-5.408698841352221898e+00
-1.132769726804563248e+01,-4.141578453139695526e+00,-5.409001944692748864e+00
-1.072199302191755166e+01,-5.860571833572164380e+00,-5.409637493207468673e+00
-9.820540086881758057e+00,-7.492431152999124322e+00,-5.409316293415068699e+00
-8.664796692007474377e+00,-8.957320747022702534e+00,-5.408846942146578129e+00
-7.339901659513660803e+00,-1.019986437777900967e+01,-5.409475539759934115e+00
-5.722556786679163565e+00,-1.138742171785050949e+01,-5.409316077527200228e+00
-3.934055421268250363e+00,-1.225401817081200839e+01,-5.408945270975093145e+00
-2.031223573346854216e+00,-1.282467508863724071e+01,-5.409393326517904832e+00
-2.475422319998266119e-02,-1.310711415454422735e+01,-5.409774715125119648e+00
2.120601959607843590e+00,-1.307202887487192910e+01,-5.409585237042477068e+00
4.296460274174661365e+00,-1.267952354148328453e+01,-5.410212513892150632e+00
6.356382737220879875e+00,-1.189568917306872464e+01,-5.409302265728622494e+00
8.273075120534679527e+00,-1.069829163302187958e+01,-5.408739102937586196e+00
1.001912203355984765e+01,-9.177450550826740994e+00,-5.409839471431362234e+00
1.152274089897633047e+01,-7.340632557099805666e+00,-5.410281007140761211e+00
1.257403741371077999e+01,-5.201278270783789459e+00,-5.409646603924658237e+00
1.324636342453589499e+01,-2.925563467849025656e+00,-5.408138521200765325e+00
1.353887598018483374e+01,-6.171079205235772136e-01,-5.408227808653222723e+00
1.343059633661322394e+01,1.690337199616611663e+00,-5.408489473239880496e+00
1.296746780937012744e+01,3.892625084982465289e+00,-5.407704012848222774e+00
1.214874240438451380e+01,5.918187668373040999e+00,-5.409965551724416954e+00
1.093354634073594767e+01,7.769549976850283812e+00,-5.409984292927647154e+00
9.399361775973337885e+00,9.383543497566364522e+00,-5.409791173176306422e+00
7.678978967629114472e+00,1.065248078906511076e+01,-5.409909360492155095e+00
5.826614740302272111e+00,1.154505851225117397e+01,-5.409036559021449975e+00
3.883200607112485159e+00,1.211392754982021636e+01,-5.409094363151633722e+00
1.906593230309276521e+00,1.237904422387940429e+01,-5.408640572337220398e+00
-2.731768749552632158e-02,1.228231026714438556e+01,-5.408687017922031437e+00
-1.858535822532384252e+00,1.191081091214959287e+01,-5.408688981291358999e+00
-3.318373139045135645e+00,1.068435953144850359e+01,-7.595015850415656189e+00
-4.794995194437294828e+00,1.002447095120591314e+01,-7.595581657831127487e+00
-6.142994149882936128e+00,9.127004027827462451e+00,-7.594322824765876945e+00
-7.380704398113543618e+00,8.064941757590979421e+00,-7.594123054112091431e+00
-8.455824218380382007e+00,6.901582800037367349e+00,-7.595700992251796180e+00
-9.420053019312502940e+00,5.525332050882411750e+00,-7.595181734932981321e+00
-1.013403342305168664e+01,4.043951693761401067e+00,-7.596288102469305414e+00
-1.066712986245424943e+01,2.520137812509725350e+00,-7.595104698738706972e+00
-1.100871339582187147e+01,9.166931338177253252e-01,-7.593858795307296461e+00
-1.112903871827772662e+01,-7.116125331307703306e-01,-7.595219608333397154e+00
-1.106166116512849307e+01,-2.372118711395825308e+00,-7.595443291668367181e+00
-1.072209195707704588e+01,-4.060809809618290522e+00,-7.593826976621200764e+00
-1.013658921831096471e+01,-5.679673442556036456e+00,-7.593710717720700387e+00
-9.245135315529264375e+00,-7.212651026070327376e+00,-7.594729218747271915e+00
-8.106232587889854457e+00,-8.585731568490743371e+00,-7.594681962470520631e+00
-6.822865948036642259e+00,-9.731797135698522894e+00,-7.594375408769157509e+00
-5.291626711192051857e+00,-1.078951354266423657e+01,-7.594796762035935345e+00
-3.609466363823337964e+00,-1.157538362260920906e+01,-7.594870517524753062e+00
-1.807024241370933204e+00,-1.208047346303383129e+01,-7.595366507636496678e+00
9.388123358221722725e-02,-1.231350619868840468e+01,-7.594786983666814706e+00
2.112767061095500054e+00,-1.223496466335601340e+01,-7.593633756865968643e+00
4.120993348011368518e+00,-1.183441473922149711e+01,-7.594836779241564528e+00
6.029712039564174120e+00,-1.105559711690357005e+01,-7.594849411981439147e+00
7.797618068629922128e+00,-9.914536434952522015e+00,-7.593974799708664847e+00
9.382160905667438655e+00,-8.483584608910254232e+00,-7.594336595171492732e+00
1.070420548071204436e+01,-6.801114524797319483e+00,-7.594975204641294830e+00
1.169765623683992928e+01,-4.815057667734251368e+00,-7.595178441629608201e+00
1.232409064241251428e+01,-2.686019450899784111e+00,-7.595794337723865475e+00
1.258850447363290215e+01,-5.657474333509568964e-01,-7.594850917398743739e+00
1.247971104296447109e+01,1.566294551129328028e+00,-7.593959739989525559e+00
1.206768355429517925e+01,3.634388833045869127e+00,-7.594993813647911374e+00
1.128156147632260087e+01,5.522045729992431262e+00,-7.595372167553386511e+00
1.015457411173342805e+01,7.215542201915209120e+00,-7.594797994997549928e+00
8.732611202419651164e+00,8.721592870029340361e+00,-7.594515662366418951e+00
7.117707971132853473e+00,9.908972947163611877e+00,-7.594882669374879214e+00
5.410944053897656758e+00,1.074575241025099182e+01,-7.595086133473555989e+00
3.595877860441580864e+00,1.130499356159720747e+01,-7.594829275063350593e+00
1.758111299512393089e+00,1.155644359741883775e+01,-7.595132557603813339e+00
-9.070923194241409249e-03,1.148698986383221765e+01,-7.595576253693817392e+00
-1.694681912957993752e+00,1.116753342773644064e+01,-7.595210459640007628e+00
-3.127849106996111850e+00,1.003216373268426764e+01,-9.780479499472701121e+00
-4.528506970038651325e+00,9.416960493777335017e+00,-9.780964231997254288e+00
-5.794566878727890114e+00,8.576951921602059770e+00,-9.779903011913303246e+00
-6.963827824260308219e+00,7.592382236377661187e+00,-9.780088330868270674e+00
-7.964195169500504434e+00,6.496193422134054707e+00,-9.780829273266503421e+00
-8.877154247381382035e+00,5.190080544447143396e+00,-9.780254495137633342e+00
-9.565074611945739491e+00,3.778005084466758312e+00,-9.780422462378229653e+00
-1.006385452939189307e+01,2.342387675823621507e+00,-9.780762796694299155e+00
-1.040216559268098884e+01,8.098492115421054294e-01,-9.780181010187622093e+00
-1.049275388747641102e+01,-7.503058110738001218e-01,-9.779813509418566753e+00
-1.040360418850431223e+01,-2.332758308371964517e+00,-9.780130665735605078e+00
-1.004465105132869063e+01,-3.936819778798795078e+00,-9.780371100993196620e+00
-9.451176209275242712e+00,-5.462957594255769322e+00,-9.780168215614699179e+00
-8.581412341698051449e+00,-6.864112924500568091e+00,-9.780221851800945387e+00
-7.475160674668716254e+00,-8.097607053494652263e+00,-9.781765070760693348e+00
-6.242401079216557847e+00,-9.175665958538262501e+00,-9.780654078065481372e+00
-4.781929614839540044e+00,-1.007184389981087236e+01,-9.779304620747263144e+00
-3.222729491115316591e+00,-1.075894316529876171e+01,-9.780590574072215659e+00
-1.564357420833121459e+00,-1.119463786522979198e+01,-9.780626510568708909e+00
2.076870305622282586e-01,-1.137232815780951789e+01,-9.779929872778225786e+00
2.102827465285704633e+00,-1.125676823381700942e+01,-9.780916387679333468e+00
3.910489570325337283e+00,-1.082105216010206661e+01,-9.780392195308504455e+00
5.639998967735785129e+00,-1.007527161560440554e+01,-9.780797015919194592e+00
7.258998322666400327e+00,-9.009630999055660894e+00,-9.780171387235871094e+00
8.678503935235982070e+00,-7.671810786245698566e+00,-9.780058381774278331e+00
9.864696596266277595e+00,-6.126795325192471608e+00,-9.780793573263439455e+00
1.075144911276459503e+01,-4.319225227151607172e+00,-9.781038911182010409e+00
1.133430854790746878e+01,-2.397052317022087209e+00,-9.780486965887650541e+00
1.156608068571538794e+01,-4.732425622264342380e-01,-9.780364100023748009e+00
1.148438601644199863e+01,1.420573507591918805e+00,-9.780701414341079314e+00
1.111569441533097802e+01,3.301391772855950535e+00,-9.780599897276857746e+00
1.038160995130935405e+01,5.050028085457754834e+00,-9.780430093219891319e+00
9.336058504401632874e+00,6.616802742347958954e+00,-9.779940090407624353e+00
8.028875674521421146e+00,8.007010764941071557e+00,-9.780642026989919913e+00
6.547258125461167921e+00,9.102312680297668379e+00,-9.781401227183776470e+00
4.981114419041503538e+00,9.881297819999458554e+00,-9.779978848142446779e+00
3.307931689199385517e+00,1.042410274200163300e+01,-9.779575581570179921e+00
1.638158591909941286e+00,1.066111203398008556e+01,-9.780766003852987112e+00
-8.853656348310146029e-03,1.065147269173498756e+01,-9.781214142796862632e+00
-1.615289368976320361e+00,1.044410202391489761e+01,-9.780569161902487707e+00
-2.878722231740429294e+00,9.263926812974172975e+00,-1.196600831977654167e+01
-4.193902969059251085e+00,8.700737258057390733e+00,-1.196681554556706750e+01
-5.394346189390660129e+00,7.935329521284026022e+00,-1.196741446071088255e+01
-6.475507908541602298e+00,7.016783325630583157e+00,-1.196638319166400422e+01
-7.399169340095901326e+00,5.994008469449278564e+00,-1.196436517212334394e+01
-8.230159772828383069e+00,4.782771443361268027e+00,-1.196505191176637162e+01
-8.878090333374887066e+00,3.462546324536165177e+00,-1.196702599295919001e+01
-9.356168299107874731e+00,2.109161562115176913e+00,-1.196594778197921372e+01
-9.660651783055694608e+00,6.837477426939946312e-01,-1.196531740663187726e+01
-9.750017688349286615e+00,-7.880409052730099617e-01,-1.196619528944110833e+01
-9.629383331336459406e+00,-2.276554760099783969e+00,-1.196484730934825436e+01
-9.245405588488862847e+00,-3.777657363763930576e+00,-1.196592252521508470e+01
-8.659489360216845455e+00,-5.170837049514828365e+00,-1.196565460944398218e+01
-7.818809719104527822e+00,-6.420962754432472330e+00,-1.196593003492435336e+01
-6.796362921615067165e+00,-7.528352718813511757e+00,-1.196704403542664608e+01
-5.576197039446675774e+00,-8.500774903272981575e+00,-1.196562110041672433e+01
-4.211684597363999139e+00,-9.218552072146227516e+00,-1.196642375579347828e+01
-2.788681998305662546e+00,-9.802875151424649047e+00,-1.196594643576116468e+01
-1.302119761664252806e+00,-1.018357055962237823e+01,-1.196535936634980324e+01
3.179008833186944827e-01,-1.028922206256744865e+01,-1.196591564452315382e+01
2.046226095175242676e+00,-1.012768676962994618e+01,-1.196508029529778661e+01
3.647016993945475960e+00,-9.670878129719557847e+00,-1.196540434750491499e+01
5.204573161210590548e+00,-8.984551915408601985e+00,-1.196657366201149131e+01
6.625454314487626561e+00,-8.001805559943075963e+00,-1.196573977202771921e+01
7.885055721651513139e+00,-6.778528192001790131e+00,-1.196533105072035852e+01
8.926442480031889559e+00,-5.375028919859651921e+00,-1.196679254235854017e+01
9.706559257446128797e+00,-3.781878988418525989e+00,-1.196671834963883541e+01
1.023809109945609563e+01,-2.078461061693912093e+00,-1.196616829673967786e+01
1.044417663108857219e+01,-3.880458385849436809e-01,-1.196587434957946172e+01
1.037847871601711702e+01,1.287881410076187727e+00,-1.196509664893772751e+01
1.006320052575683732e+01,2.937914634537906799e+00,-1.196467821067691695e+01
9.402699398088941507e+00,4.529871977579139397e+00,-1.196569797290543491e+01
8.473660908030897332e+00,5.966493207833338808e+00,-1.196567282825938250e+01
7.296716421918618245e+00,7.206122791704792974e+00,-1.196597248475004349e+01
5.954629270732506363e+00,8.209158478749300158e+00,-1.196578619064781357e+01
4.531119734630403073e+00,8.961278691188240941e+00,-1.196575578193593614e+01
3.031305568788187355e+00,9.440689570308746781e+00,-1.196611480082473378e+01
1.505985080096699846e+00,9.690165507716795190e+00,-1.196583009225136074e+01
1.181847632180321739e-02,9.745803992928795623e+00,-1.196509524635697552e+01
-1.473754164124321697e+00,9.606191898773722926e+00,-1.196519996525808871e+01
-2.566818276262736731e+00,8.339080383792911277e+00,-1.415232946694811922e+01
-3.775469086367726934e+00,7.832991964551979436e+00,-1.415191295869353283e+01
-4.880855640193130895e+00,7.146496021226607098e+00,-1.415082208200046665e+01
-5.878339507450527357e+00,6.321318607735543438e+00,-1.415093226603475962e+01
-6.710993626421655200e+00,5.388686426354507120e+00,-1.415080434602202608e+01
-7.456391775665002442e+00,4.293882584741425035e+00,-1.415013768778058356e+01
-8.063453714429005714e+00,3.070604666317375386e+00,-1.415082827579538183e+01
-8.503379491072013963e+00,1.829086730235887970e+00,-1.415123761711867623e+01
-8.773278120330690655e+00,5.270738496880778001e-01,-1.415033988138696941e+01
-8.852731152133236137e+00,-8.227822344541939614e-01,-1.414956944238041814e+01
-8.677843718887512381e+00,-2.203341064352233758e+00,-1.415088819271789156e+01
-8.286752047376927166e+00,-3.540529221469487453e+00,-1.415245310601566153e+01
-7.747927403807919333e+00,-4.769396595329505217e+00,-1.415096061793351545e+01
-6.967017900420472643e+00,-5.877523628442229864e+00,-1.415105409454390184e+01
-6.021389452061717051e+00,-6.847013357143477030e+00,-1.415213981577238478e+01
-4.846356244198714691e+00,-7.703125122447507245e+00,-1.415042387396943191e+01
-3.610774048667149572e+00,-8.250024787356110778e+00,-1.415027351794629595e+01
-2.361039809903498821e+00,-8.726052081198091059e+00,-1.415073187762697593e+01
-1.065408074915762171e+00,-9.033327671211043963e+00,-1.415122280068397842e+01
3.744246740888517166e-01,-9.081168110387068282e+00,-1.415158092608431772e+01
1.922267038544151596e+00,-8.863126687016094962e+00,-1.415199204099702968e+01
3.320102393421660025e+00,-8.432581755122434686e+00,-1.415197365800351470e+01
4.662668315355587012e+00,-7.786322334953930557e+00,-1.415142368427210684e+01
5.898056322422275954e+00,-6.906707860154146061e+00,-1.415197398941359097e+01
6.960348056129310734e+00,-5.806503015255572997e+00,-1.415268468911410693e+01
7.820817335859604924e+00,-4.573103111524726927e+00,-1.415100179112630663e+01
8.495197263539500554e+00,-3.224613797954039462e+00,-1.415019206310715916e+01
8.986110054892860077e+00,-1.772292204660141479e+00,-1.415160821267566682e+01
9.210816219086837009e+00,-3.039252161270704633e-01,-1.415230331551384424e+01
9.176796428501379665e+00,1.130818874586681844e+00,-1.415201045063307639e+01
8.901114732598845336e+00,2.557322642772738241e+00,-1.415165196199309783e+01
8.306867630748616449e+00,3.995472582400217298e+00,-1.415138161311889853e+01
7.507798344242121225e+00,5.268519667539847795e+00,-1.415113136271655669e+01
6.510247769468191059e+00,6.356586544325224075e+00,-1.415101119878949021e+01
5.303070847646581321e+00,7.266291265537441646e+00,-1.415156235601470947e+01
4.027800311210910422e+00,7.955907570602633427e+00,-1.415185575468075818e+01
2.707016738419727897e+00,8.367467657406152171e+00,-1.415128700924669758e+01
1.392609011070091718e+00,8.623618894205968388e+00,-1.415132006400751408e+01
6.166662004597789348e-02,8.712769931010591051e+00,-1.415155052762437116e+01
-1.277113216231515302e+00,8.627210484266205626e+00,-1.415186339764149537e+01
-2.206886727378730928e+00,7.237173088380927766e+00,-1.633788849126063170e+01
-3.260549830731789278e+00,6.805300411053880616e+00,-1.633651131482619689e+01
-4.238320129070212161e+00,6.219483858772745677e+00,-1.633705073849990086e+01
-5.128061397985395509e+00,5.494847362711150041e+00,-1.633796516199786097e+01
-5.844985587255504100e+00,4.672434233383954805e+00,-1.633670865349335699e+01
-6.522718190516711978e+00,3.710546525226700254e+00,-1.633517935108944386e+01
