4.882229947324794317e+00,-1.298436375699608192e+01,2.042511804823234911e+01
6.861183157618284234e+00,-1.207918446868059092e+01,2.042511808529453887e+01
8.603316751941319396e+00,-1.072223380206525967e+01,2.042511807019323555e+01
9.977107886779364776e+00,-8.999455111952338271e+00,2.042511816226111421e+01
1.093016254901925777e+01,-7.096509271279145992e+00,2.042511814093283107e+01
1.152713794800287950e+01,-5.122541433696490287e+00,2.042511819072277035e+01
1.186670898042683930e+01,-3.162662707149930696e+00,2.042511815953285392e+01
1.197045466844310546e+01,-1.240738390646551892e+00,2.042511817705858945e+01
1.183414887991235531e+01,6.205045099354462579e-01,2.042511800069926764e+01
1.143731473310673508e+01,2.414173340379765165e+00,2.042511805687894721e+01
1.076010243483865736e+01,4.110479904978334709e+00,2.042511813425779366e+01
9.828327917338411268e+00,5.650938983117080205e+00,2.042511813655442410e+01
8.663961776952461946e+00,6.978063153634860072e+00,2.042511810307285458e+01
7.350164370980207806e+00,8.092425162937699312e+00,2.042511801120413750e+01
5.940425353619998461e+00,8.984048763643283309e+00,2.042511798252435540e+01
4.460080570306333314e+00,9.716994161481286696e+00,2.042511795324838175e+01
2.919982413565122670e+00,1.027373389330080933e+01,2.042511792516253877e+01
1.319805022733408606e+00,1.066579372262686221e+01,2.042511785981385586e+01
-3.404493570136208902e-01,1.085802099861138537e+01,2.042511785767607790e+01
-2.031942058409523355e+00,1.086830692356036820e+01,2.042511780214920236e+01
-3.711395684831272579e+00,1.065035583118168816e+01,2.042511782589842895e+01
-5.361615221544619558e+00,1.016034131638700799e+01,2.042511789587289783e+01
-6.974321843266418242e+00,9.322735376310099298e+00,2.042511793840385792e+01
-8.449365231939472309e+00,8.203783306532328012e+00,2.042511796439584515e+01
-9.749482523161612235e+00,6.843588638946181746e+00,2.042511803003050375e+01
-1.081806943669333876e+01,5.290637527204374635e+00,2.042511806517687489e+01
-1.163294435304444541e+01,3.570986949946648892e+00,2.042511818367707122e+01
-1.217456000183910092e+01,1.736335662105720878e+00,2.042511816292618221e+01
-1.241185619129700335e+01,-2.059158975116082146e-01,2.042511802732520110e+01
-1.232766432980929494e+01,-2.145735906819878025e+00,2.042511801324600995e+01
-1.193739895326637956e+01,-4.085499024077264174e+00,2.042511805298007133e+01
-1.124703383197873841e+01,-5.940965352536194288e+00,2.042511806657714857e+01
-1.026824027857260546e+01,-7.698609619250929015e+00,2.042511817468151492e+01
-9.006319059810410366e+00,-9.311063856880217315e+00,2.042511804393880581e+01
-7.453844123103587904e+00,-1.074182014245376493e+01,2.042511797040543087e+01
-5.628586512311366974e+00,-1.188618983216094804e+01,2.042511790361977120e+01
-3.728260473059139102e+00,-1.320982986046177032e+01,1.828098436979321306e+01
-1.494392360001545406e+00,-1.375336723826956131e+01,1.828057847356573262e+01
7.945348167087411539e-01,-1.392222035566031835e+01,1.828030463328714816e+01
2.993304496382471314e+00,-1.366652080380211132e+01,1.828064551658309256e+01
5.077330303610890994e+00,-1.304010004413241042e+01,1.828097706641495535e+01
6.981958210751082028e+00,-1.204232482511838320e+01,1.828070190755021329e+01
8.694289494976558785e+00,-1.071752112286321612e+01,1.828071402923395539e+01
1.011024913161267413e+01,-9.043647027974522246e+00,1.828062205534458684e+01
1.114692333650046407e+01,-7.150764898177410345e+00,1.828112237458655898e+01
1.181155788852973387e+01,-5.156826504865639649e+00,1.828049381665787720e+01
1.209673732905181254e+01,-3.137135782922044314e+00,1.828016274373099037e+01
1.210435712895022675e+01,-1.157608832663626686e+00,1.828040129591160934e+01
1.189025905346135836e+01,7.276934064814080116e-01,1.828085788084990071e+01
1.140578627352629226e+01,2.514973860668384908e+00,1.828048593382290576e+01
1.066327759590027924e+01,4.156190654833411102e+00,1.828010994699723923e+01
9.705148428029490404e+00,5.644691441501337614e+00,1.828118003541526804e+01
8.516878120764438620e+00,6.966703308911895931e+00,1.828165310328794746e+01
7.218772871520222623e+00,8.153991455758673013e+00,1.828096652247401721e+01
5.839920624534082449e+00,9.106502797879350908e+00,1.828118496509138424e+01
4.399728487439189095e+00,9.757752137361810796e+00,1.828159936996472723e+01
2.886128826988851870e+00,1.025155063032100422e+01,1.828142422172587445e+01
1.353677674013074039e+00,1.072384526958133577e+01,1.828142835634370300e+01
-2.541945799686144980e-01,1.099081853911923368e+01,1.828025639535444213e+01
-1.952605259345907118e+00,1.099771363344490460e+01,1.828064530098820129e+01
-3.695292670094606713e+00,1.079974623271376899e+01,1.828207810044466797e+01
-5.456677772701688411e+00,1.038964698465162861e+01,1.828128477206473335e+01
-7.146794695846791612e+00,9.596893446243409898e+00,1.828094259547169287e+01
-8.702465500344422011e+00,8.485755099847851923e+00,1.828014258368765255e+01
-1.008370623838983349e+01,7.100820414948344705e+00,1.827987978164716765e+01
-1.122807542636580003e+01,5.515389936125428605e+00,1.828090319283127840e+01
-1.204463296675881701e+01,3.789454324956928133e+00,1.828100665060398811e+01
-1.263637521461369317e+01,1.946691701081544323e+00,1.828063129301815337e+01
-1.297887641692811833e+01,-4.435399305622755861e-02,1.828038597626492034e+01
-1.294890085504240496e+01,-2.109880172222422079e+00,1.828051573513945982e+01
-1.249894018376667226e+01,-4.173348224722547961e+00,1.828042713979684919e+01
-1.170987912459832003e+01,-6.143507610199127278e+00,1.827999408715583129e+01
-1.061442636480051149e+01,-7.939781920146803174e+00,1.828026921899515500e+01
-9.253840154313964561e+00,-9.694270871952205937e+00,1.828031207222191057e+01
-7.609262786141089308e+00,-1.120289992087704967e+01,1.828047715602224343e+01
-5.778195334549527828e+00,-1.234485776000585666e+01,1.828088974475245365e+01
-3.721770782001172506e+00,-1.340844192426819781e+01,1.613624252309733365e+01
-1.456419718786800210e+00,-1.394945101519452635e+01,1.613529529774058346e+01
8.613157561833926223e-01,-1.408302240062582733e+01,1.613544001869885847e+01
3.060753871572551521e+00,-1.372157420784083826e+01,1.613638038365237648e+01
5.119264506145260185e+00,-1.302575436562325706e+01,1.613713333067845568e+01
7.037995246810768712e+00,-1.202238650881951898e+01,1.613640628852126113e+01
8.690981166906230015e+00,-1.068015671653855314e+01,1.613524911595679256e+01
1.012789790605407347e+01,-9.060153603489332852e+00,1.613524928390659596e+01
1.123330496611607110e+01,-7.202977751673932616e+00,1.613697510042499772e+01
1.191546918638718466e+01,-5.210268792444097130e+00,1.613693738018347190e+01
1.218431721623424835e+01,-3.188996764798002204e+00,1.613518066984867261e+01
1.217357433776454911e+01,-1.231685867939527945e+00,1.613582957998039902e+01
1.195462344242770492e+01,6.703811938857500152e-01,1.613673203853446125e+01
1.142526615209369290e+01,2.446296033247628010e+00,1.613632874842361531e+01
1.065796763172136075e+01,4.081311441999114109e+00,1.613620530812827880e+01
9.734317366039510588e+00,5.556198157176400976e+00,1.613696802356750837e+01
8.572633691794633748e+00,6.904143266578963711e+00,1.613641647991526540e+01
7.297975198792373774e+00,8.163443628747014458e+00,1.613638860417913889e+01
5.936084813330932519e+00,9.176148335258034194e+00,1.613720181960642108e+01
4.520886620781972454e+00,9.823024188958841663e+00,1.613740870887315637e+01
3.022885069117933199e+00,1.032275817781611060e+01,1.613642720876550385e+01
1.475664023319371410e+00,1.087046578940048214e+01,1.613683660455345148e+01
-1.342941693274006809e-01,1.118954882396270811e+01,1.613570704436824599e+01
-1.852823348647623547e+00,1.122091924869588198e+01,1.613611923755802025e+01
-3.647142580378303744e+00,1.102930287659852482e+01,1.613678705218599418e+01
-5.499692316422125415e+00,1.065427915733242514e+01,1.613565575998047663e+01
-7.275031506608548248e+00,9.863491528585685231e+00,1.613607995698291475e+01
-8.888664177454430160e+00,8.728312205264481705e+00,1.613532263527360655e+01
-1.034880926196642648e+01,7.315059952021723433e+00,1.613586212990806246e+01
-1.151928734792704745e+01,5.703703149593188471e+00,1.613725047472064489e+01
-1.234875497919558818e+01,3.937706085026515979e+00,1.613657512697412599e+01
-1.293840673483676795e+01,2.043707203244987447e+00,1.613721706723609728e+01
-1.331224732997186244e+01,-6.074108560362390108e-03,1.613663081161718438e+01
-1.331765047249524692e+01,-2.148844705330261728e+00,1.613610294327116890e+01
-1.283221419098653904e+01,-4.283898775114471924e+00,1.613674166893975226e+01
-1.199524567053323665e+01,-6.314144245586435389e+00,1.613636416587351619e+01
-1.080895472209978969e+01,-8.121024477802889052e+00,1.613754737715738585e+01
-9.368666499561712158e+00,-9.913631137622459732e+00,1.613689987034309681e+01
-7.671406534662244425e+00,-1.145367829424655781e+01,1.613599800908919946e+01
-5.777102267752434628e+00,-1.257213944010909401e+01,1.613626762121353408e+01
-3.638834343465807919e+00,-1.342221165158966834e+01,1.399133296934218862e+01
-1.417855756141786827e+00,-1.393162412565294161e+01,1.399189959748361289e+01
8.509883879679369656e-01,-1.403844719663554663e+01,1.399221304751997863e+01
3.036513580001066082e+00,-1.365547484759387942e+01,1.399274961469965106e+01
5.090087707187185728e+00,-1.295272791300753390e+01,1.399240712717807611e+01
6.986928639807708841e+00,-1.198822106631261164e+01,1.399165918068405823e+01
8.587023976519859048e+00,-1.064278036803871075e+01,1.399182098902183746e+01
1.003321264264250701e+01,-9.047111521058377903e+00,1.399144085433346518e+01
1.115442921391189124e+01,-7.244245023790861993e+00,1.399161859222752113e+01
1.185472713443519588e+01,-5.302500496145601261e+00,1.399270806633220232e+01
1.215370653206154117e+01,-3.325707963590515348e+00,1.399264056983595772e+01
1.218396274106529198e+01,-1.409862768823952450e+00,1.399150969997530680e+01
1.198347833073921365e+01,4.588849290429761751e-01,1.399204059523275134e+01
1.149063014614650413e+01,2.261945262293057368e+00,1.399200219632682440e+01
1.074708824675805907e+01,3.896355695085171433e+00,1.399158141728465310e+01
9.836086106403614693e+00,5.401430196122423588e+00,1.399126615319071298e+01
8.742041027394696684e+00,6.781890299457927540e+00,1.399045494209517670e+01
7.525788760137501754e+00,8.076156827743488975e+00,1.399197668139423634e+01
6.160963480901219924e+00,9.152377049207370163e+00,1.399249178798101489e+01
4.726825561736077930e+00,9.873370295043120137e+00,1.399228515136129403e+01
3.261464739933410684e+00,1.045884385831307561e+01,1.399271739798687264e+01
1.679093978684130128e+00,1.103637498202477651e+01,1.399219333481135230e+01
1.430268135820167430e-02,1.142843590943660992e+01,1.399234675911401915e+01
-1.747466105409654524e+00,1.148381489753410811e+01,1.399220667586924094e+01
-3.599471530503723038e+00,1.128600513873383449e+01,1.399239231261160299e+01
-5.519656121352757516e+00,1.092725782086781727e+01,1.399161598327360601e+01
-7.362846819233641149e+00,1.012894060335944602e+01,1.399140779134241619e+01
-9.057440138811221786e+00,8.971796928270503457e+00,1.399185302071227355e+01
-1.055661184031049160e+01,7.525802820851838604e+00,1.399224019175952805e+01
-1.175407727716245176e+01,5.863257205453928478e+00,1.399252756864383684e+01
-1.260521742668146139e+01,4.057968157861104430e+00,1.399195016226290456e+01
-1.317135246327252673e+01,2.081407549102686438e+00,1.399250868401175296e+01
-1.354099980352243904e+01,-5.014586204331195063e-02,1.399201792380441667e+01
-1.353013711304560474e+01,-2.245286380825921579e+00,1.399087002885152664e+01
-1.301092393941736880e+01,-4.424972947599016493e+00,1.399188682973520770e+01
-1.213471783035905993e+01,-6.476506365633255768e+00,1.399300185771386396e+01
-1.089334163917677145e+01,-8.271145576995991178e+00,1.399151025992650688e+01
-9.398421845838523581e+00,-1.001559452783326520e+01,1.399120206200073824e+01
-7.651064098453796092e+00,-1.149881053318022772e+01,1.399190731961284762e+01
-5.706962422075404717e+00,-1.261222787039534232e+01,1.399163134607952230e+01
-3.519935493305302643e+00,-1.327333669528270299e+01,1.184899889873116052e+01
-1.390116584539645928e+00,-1.374171993962929328e+01,1.184820471159127031e+01
7.649867776086836102e-01,-1.383642429432246246e+01,1.184769754668121422e+01
2.928520654583361527e+00,-1.345740695026608513e+01,1.184896766297466897e+01
4.944773929185683592e+00,-1.276547261583839976e+01,1.184865592653985722e+01
6.814121046695350792e+00,-1.181270623226390271e+01,1.184638447876856837e+01
8.376059769959516288e+00,-1.050594561899186630e+01,1.184819971592093424e+01
9.787786365937606092e+00,-8.988633801577627480e+00,1.184817791310250001e+01
1.092832147130685705e+01,-7.251361728250314442e+00,1.184817283986994418e+01
1.166376471345127186e+01,-5.380015880016209451e+00,1.184847406929199032e+01
1.200239900750127120e+01,-3.474751989229293514e+00,1.184674325605781497e+01
1.209892748389771278e+01,-1.622776382851777832e+00,1.184671759086028331e+01
1.196194768625966276e+01,2.420224785365894249e-01,1.184746714221885000e+01
1.151841689503057253e+01,2.029646010988604310e+00,1.184692566456875085e+01
1.084649024800134676e+01,3.680916219636675812e+00,1.184715014760879548e+01
9.962973022840305504e+00,5.208411522994441434e+00,1.184812048049225197e+01
8.907315848431242244e+00,6.654758803114033228e+00,1.184808535276683195e+01
7.756353754616080565e+00,7.941910880220054203e+00,1.184740180139125165e+01
6.429223246759189436e+00,9.058314902371165545e+00,1.184680717685977136e+01
5.003049616626348950e+00,9.913177203235026269e+00,1.184811178871564508e+01
3.510148222567442744e+00,1.061975777439269386e+01,1.184886657984960401e+01
1.864784397495140134e+00,1.123004151712629906e+01,1.184727528541826302e+01
1.524452057637484259e-01,1.165718478830448390e+01,1.184795108391419660e+01
-1.657513977745197042e+00,1.176672207535851911e+01,1.184865778920338641e+01
-3.568824668848122883e+00,1.155681923916048959e+01,1.184756737171088758e+01
-5.523565581133726532e+00,1.118142538998259283e+01,1.184759154826287464e+01
-7.397464332371648688e+00,1.038605589023063480e+01,1.184757041663620392e+01
-9.160089017937366407e+00,9.178900092924578757e+00,1.184788032358499343e+01
-1.068968407903972917e+01,7.685637535377230378e+00,1.184853825998870391e+01
-1.190638442954313447e+01,5.995331337813517791e+00,1.184821127210790159e+01
-1.276818677787798784e+01,4.140121701228025586e+00,1.184699365005724125e+01
-1.334251197438269898e+01,2.085864104994382018e+00,1.184815400928006035e+01
-1.367140768282019181e+01,-9.770607326245439594e-02,1.184729970471600780e+01
-1.362283556548439911e+01,-2.351011056091171447e+00,1.184674226556118981e+01
-1.309016345721786578e+01,-4.528904598452749397e+00,1.184761904997465365e+01
-1.216921440374004248e+01,-6.597195474736557763e+00,1.184783004983939847e+01
-1.090671192624447805e+01,-8.381022953871958947e+00,1.184732283641004535e+01
-9.364295649901587026e+00,-1.002372596151305295e+01,1.184693382155634289e+01
-7.564370270900218074e+00,-1.141290184357275805e+01,1.184753238101152206e+01
-5.590195641116778802e+00,-1.249612481778037676e+01,1.184856458312633976e+01
-3.422276520979322001e+00,-1.299356272033867477e+01,9.703992694677518571e+00
-1.381875607797808492e+00,-1.339140024698931519e+01,9.703733926797248444e+00
6.833588764775262447e-01,-1.346196264025768130e+01,9.703953668197497606e+00
2.738491332071058881e+00,-1.312698533176151727e+01,9.702845462011126187e+00
4.705888674311722752e+00,-1.247656150567961930e+01,9.701766879669220245e+00
6.509956523398979122e+00,-1.152671677653619220e+01,9.703106788633661495e+00
8.072378361477856146e+00,-1.031929623267242135e+01,9.703625474991182998e+00
9.450536507691767341e+00,-8.864751821419126543e+00,9.703746242841086556e+00
1.057548558343055589e+01,-7.205748946016953482e+00,9.703491461428713549e+00
1.134601698328249775e+01,-5.426358996432524506e+00,9.703756757290713963e+00
1.175308617252248311e+01,-3.606105925179512894e+00,9.703949044126535028e+00
1.190491605404920428e+01,-1.779071721554347896e+00,9.703043227952141692e+00
1.181971984901502637e+01,5.129854292983271336e-02,9.703150740760928983e+00
1.146992835118199494e+01,1.823034208649771060e+00,9.704222127268915088e+00
1.085032018346342042e+01,3.494353618471496947e+00,9.704035832622768254e+00
1.005019924996269864e+01,5.051146256299227311e+00,9.702961421675817988e+00
9.042580276526550165e+00,6.519089818579477225e+00,9.703833822593946223e+00
7.931336892273286310e+00,7.804862270191475382e+00,9.704225165308361767e+00
6.668706902711569739e+00,8.946304679141062977e+00,9.703102317528719212e+00
5.246963924171582860e+00,9.955847242937199582e+00,9.702789333025032548e+00
3.708650580156277243e+00,1.077341370357223305e+01,9.702614046324256947e+00
2.018641884302413203e+00,1.141635579527370048e+01,9.703212597259170735e+00
2.660226137354690934e-01,1.187904845856862757e+01,9.703499519168806486e+00
-1.605510285849897745e+00,1.200731273600612603e+01,9.702982318247585170e+00
-3.553271300620199025e+00,1.181791858195344425e+01,9.703045216298113118e+00
-5.515555545685840499e+00,1.139526224169343926e+01,9.703125471850711392e+00
-7.411661606890071141e+00,1.059208936934988010e+01,9.703143911569620528e+00
-9.198309842428287197e+00,9.360587139675251578e+00,9.702900545082693284e+00
-1.075935134180072694e+01,7.822859396366567353e+00,9.703114862471524660e+00
-1.195410244942350353e+01,6.102966644609441715e+00,9.703229594577877037e+00
-1.284230027524711915e+01,4.193473458272517718e+00,9.702262725730340875e+00
-1.341861249077817497e+01,2.093151974780976587e+00,9.703694025863836004e+00
-1.372819055937152477e+01,-1.441214031329991485e-01,9.704064914828443023e+00
-1.364123468912750958e+01,-2.407191952915921362e+00,9.703477411911142880e+00
-1.311486330948547518e+01,-4.599905374071761699e+00,9.703725142110950941e+00
-1.214817075808629632e+01,-6.660790437731368030e+00,9.703266496176693678e+00
-1.085991887448379245e+01,-8.459053528854649784e+00,9.703083822727112562e+00
-9.265920446319778847e+00,-9.974924629039879420e+00,9.702472953851071225e+00
-7.441841030109676680e+00,-1.125240884469596736e+01,9.702667164826086932e+00
-5.452776979845060268e+00,-1.227090619368904179e+01,9.703450763654375422e+00
-3.357751542453081939e+00,-1.261081331682944295e+01,7.558620508523879344e+00
-1.402257397613922763e+00,-1.294059068629165132e+01,7.559545422418866067e+00
5.501442123142430418e-01,-1.294891791830657901e+01,7.559683468209227541e+00
2.500430257916130827e+00,-1.265066920728382094e+01,7.559325769919020388e+00
4.380455560249401969e+00,-1.207335012124503315e+01,7.559482475284093894e+00
6.123410767961721568e+00,-1.118940507916667215e+01,7.559221353925419606e+00
7.718987777618478319e+00,-1.005786692466001675e+01,7.558952477326809749e+00
9.053996765766340715e+00,-8.702129342842439996e+00,7.559301150545816306e+00
1.015233017254520043e+01,-7.152639755841684988e+00,7.558642954432258421e+00
1.096093831970302901e+01,-5.433124450806431582e+00,7.558476595017144639e+00
1.141383105095561135e+01,-3.674963750931008910e+00,7.559090587978612774e+00
1.163795020949580206e+01,-1.899561210692634283e+00,7.558108867662169494e+00
1.160592091045923802e+01,-1.031905713655856260e-01,7.559165691646768437e+00
1.133768994526276508e+01,1.660070410859110446e+00,7.558783561864633072e+00
1.081886037844773796e+01,3.335417654915310059e+00,7.557699495019141622e+00
1.009925040199584600e+01,4.918297977100936968e+00,7.558665724771681305e+00
9.143858704049341313e+00,6.408805531159416091e+00,7.558933085937411533e+00
8.070928676834817850e+00,7.704877138410806126e+00,7.559261661491553319e+00
6.856266311493204313e+00,8.875935362872201750e+00,7.559054473826494203e+00
5.441237376578010654e+00,1.000241340860065264e+01,7.557531356966939562e+00
3.826016193516588615e+00,1.090527428506052487e+01,7.558459101900989019e+00
2.131355310925937552e+00,1.157769734393400718e+01,7.559123779177720159e+00
3.422064127302499870e-01,1.204530601604807494e+01,7.559066603437204712e+00
-1.557097936613591305e+00,1.220373628577148395e+01,7.558115257964010958e+00
-3.514061517835494364e+00,1.202378231383118035e+01,7.557579567686762978e+00
-5.506222565465984431e+00,1.156380360160287424e+01,7.559849741718932314e+00
-7.397920599412174170e+00,1.072666170610199288e+01,7.559597794305663143e+00
-9.179012847171044598e+00,9.460751935021477266e+00,7.559504261928176483e+00
-1.071676991275756308e+01,7.934805046940077489e+00,7.559979432325194537e+00
-1.192317907097626772e+01,6.182343766401995566e+00,7.558828178499878092e+00
-1.284123245381369216e+01,4.225167938609514451e+00,7.558595524089554374e+00
-1.344469660564583258e+01,2.099941912994498949e+00,7.558810473944348018e+00
-1.370572352168758812e+01,-1.562378566134494662e-01,7.558387695517766680e+00
-1.358643260105461614e+01,-2.434029777163164709e+00,7.558521060367654698e+00
-1.304034119600832575e+01,-4.636187951823201203e+00,7.558945223083162190e+00
-1.205369387759190936e+01,-6.673091822765455206e+00,7.558652562086889404e+00
-1.073405529368851141e+01,-8.442283275764561168e+00,7.559739810689868555e+00
-9.137489939245334369e+00,-9.887993517639847241e+00,7.558901853560605844e+00
-7.296614733175422529e+00,-1.104806021697238627e+01,7.557759239300209764e+00
-5.348735767507683647e+00,-1.196829274015990485e+01,7.557938665627120578e+00
-3.308025478182651469e+00,-1.214770332429507249e+01,5.414496847910980293e+00
-1.426818205002653883e+00,-1.240307197898754410e+01,5.413978310715806153e+00
4.394278994373985725e-01,-1.237044391200151416e+01,5.414283634666537282e+00
2.280306062500780051e+00,-1.212028239502362581e+01,5.414234179954456216e+00
4.064391366184645804e+00,-1.162447768678367943e+01,5.413826340176573382e+00
5.777353310658214447e+00,-1.081602192690408692e+01,5.414532697754936841e+00
7.386023440663912254e+00,-9.752183177537686376e+00,5.415020919865170868e+00
8.688632888895384099e+00,-8.480558313064754827e+00,5.414895685363843469e+00
9.748222524053904436e+00,-7.018633191682953409e+00,5.414699100851952274e+00
1.054736829943499821e+01,-5.402757453191052051e+00,5.415368074169280455e+00
1.107303518823191979e+01,-3.688034919436653070e+00,5.414763620987687709e+00
1.134666874750371512e+01,-1.923789841031224412e+00,5.414577467563309376e+00
1.137593713834650089e+01,-1.983719015095752880e-01,5.415677498971793291e+00
1.118085854029197890e+01,1.535810825934383672e+00,5.415352716239037356e+00
1.075877623056602239e+01,3.229465893884277072e+00,5.414749506319810557e+00
1.009334196815584228e+01,4.828558296399060978e+00,5.415510842514960288e+00
9.217737708412441222e+00,6.296104509719099518e+00,5.415573896314181290e+00
8.186844140557402838e+00,7.641382611032549121e+00,5.414868518173970635e+00
7.000850798771557137e+00,8.848599363208151658e+00,5.414697386088984210e+00
5.562286408111287273e+00,1.003753061741826613e+01,5.414961930482023789e+00
3.932519686174103413e+00,1.099573608731366470e+01,5.415064402813747790e+00
2.224951236703629043e+00,1.169208357269811493e+01,5.414170170908241708e+00
4.246479507986862245e-01,1.215326094701628712e+01,5.414557016576263315e+00
-1.505533846901501160e+00,1.232520269815904079e+01,5.414659721349380561e+00
-3.482008527399862885e+00,1.214597879295717853e+01,5.413906711970056129e+00
-5.455318454107106696e+00,1.165044081360502659e+01,5.415416752408368062e+00
-7.338964760344051541e+00,1.077788738586313855e+01,5.414837061418400488e+00
-9.098797541334359806e+00,9.502642266498616763e+00,5.415165876529102640e+00
-1.062396326023606363e+01,7.948510916485490796e+00,5.414800031310055495e+00
-1.181969697335930114e+01,6.177801731218897530e+00,5.413758793204949349e+00
-1.273785105112080629e+01,4.195273980108463974e+00,5.414802173231676896e+00
-1.337380353471749928e+01,2.085855846957997528e+00,5.414464201527433573e+00
-1.361009076348291202e+01,-1.809031813502643971e-01,5.414498706930485739e+00
-1.343192550518810791e+01,-2.459465950579545535e+00,5.415242387191611328e+00
-1.288592182601224678e+01,-4.628909587585553709e+00,5.414923195168772629e+00
-1.186889709421792460e+01,-6.646496668368820693e+00,5.415758170747869471e+00
-1.053479362501804317e+01,-8.392240198212483904e+00,5.414227667284476020e+00
-8.950250978958912640e+00,-9.765529236281329517e+00,5.413883051062482465e+00
-7.147958101248228502e+00,-1.082092642670827765e+01,5.415212613216068505e+00
-5.226754070409842967e+00,-1.162020650293756674e+01,5.415223287604455038e+00
-3.225953037180858018e+00,-1.167082478207792562e+01,3.270095135217179205e+00
-1.411967301652098605e+00,-1.187334531379522495e+01,3.270310800751695002e+00
3.722628300148347336e-01,-1.183698407802671504e+01,3.270173936611352250e+00
2.128200702299574587e+00,-1.162650892069258646e+01,3.270935474603894111e+00
3.870350457106987108e+00,-1.117657427609752041e+01,3.271010610542282038e+00
5.529614134525875357e+00,-1.043424508614812929e+01,3.270276725819283303e+00
7.081187497970183209e+00,-9.434174263490101353e+00,3.269500226614377336e+00
8.343582892666361772e+00,-8.219994663224635900e+00,3.270064474733549886e+00
9.369745769074297570e+00,-6.831211413492196627e+00,3.270419265120945163e+00
1.016170925607227993e+01,-5.315439957100018376e+00,3.269873387359838457e+00
1.076870815026147454e+01,-3.644117552446106245e+00,3.269439389798545648e+00
1.107103102186721166e+01,-1.942344224062778402e+00,3.270017515731720614e+00
1.115071532504855156e+01,-2.544371507869591653e-01,3.270264045257656349e+00
1.101928541281850471e+01,1.449753585693761782e+00,3.269321739210156341e+00
1.066768894097655185e+01,3.161054990717419244e+00,3.269685088541313345e+00
1.006634539018633312e+01,4.770699975216338373e+00,3.271154384094493217e+00
9.244923023756753011e+00,6.236043938746355764e+00,3.271275473539476231e+00
8.243183179383640535e+00,7.592838183203340918e+00,3.269889685367062704e+00
7.072440980106103225e+00,8.824256833849812409e+00,3.268834010812608160e+00
5.613616281967351185e+00,1.003025187959400100e+01,3.269677127000973016e+00
4.012843444478123800e+00,1.099895566592991436e+01,3.269331891911373855e+00
2.316464193646283753e+00,1.172266005412865475e+01,3.269311171809677674e+00
4.892297877635884973e-01,1.216379677193269870e+01,3.270491935404263195e+00
-1.430643427382823241e+00,1.234280577095463194e+01,3.271006033298319071e+00
-3.412738136504650743e+00,1.216690447008006082e+01,3.270577730793675197e+00
-5.371253126855077831e+00,1.162938052053987192e+01,3.270417713019072803e+00
-7.236948308949997966e+00,1.071646778320745952e+01,3.270360148996034777e+00
-8.943999732168094852e+00,9.435914674676494585e+00,3.270179989707181267e+00
-1.040588044385788535e+01,7.900358603142741742e+00,3.269691117541221992e+00
-1.164064456554724813e+01,6.107290133684488254e+00,3.269427161953235572e+00
-1.255683376338579293e+01,4.119531491718788629e+00,3.269466487584383518e+00
-1.319287577074193152e+01,2.037380741185330635e+00,3.268765711939651819e+00
-1.340529197449526855e+01,-1.847070158195398548e-01,3.269565991030380925e+00
-1.318258026273701589e+01,-2.412500248103728318e+00,3.269678062588063483e+00
-1.261984316135824535e+01,-4.575214080375294756e+00,3.269874537218537824e+00
-1.159309249131428743e+01,-6.547060074137903030e+00,3.270645483580291391e+00
-1.026590281377238334e+01,-8.247690103247865778e+00,3.269907258602928302e+00
-8.690938105919601142e+00,-9.585162244574034318e+00,3.269975448416686525e+00
-6.935915457992026134e+00,-1.055680038074909888e+01,3.270594169867010681e+00
-5.083580488485861082e+00,-1.123727888208001247e+01,3.270258295205188404e+00
-3.119269914997028437e+00,-1.123494835226036059e+01,1.124994368928500688e+00
-1.328852837781324681e+00,-1.141014319500904861e+01,1.124669550461446565e+00
3.952358782357041633e-01,-1.137105606479441278e+01,1.124967384146228433e+00
2.105922358176760767e+00,-1.115871389813549364e+01,1.125342514302570374e+00
3.760588015567347675e+00,-1.070501199155054195e+01,1.125719580719339641e+00
5.376413731864748691e+00,-1.001641967626342833e+01,1.126185369070559217e+00
6.847162984886342230e+00,-9.070192558815689310e+00,1.126161916916560202e+00
8.056038780703318025e+00,-7.924623596453853835e+00,1.125171009234380959e+00
9.044865269389772422e+00,-6.625998186708599746e+00,1.125441693776447094e+00
9.857279402758782894e+00,-5.166463777282888969e+00,1.125349642061330258e+00
1.050645843880106334e+01,-3.564214437071396624e+00,1.124866643345499018e+00
1.084580804772408413e+01,-1.880968200333534845e+00,1.125828213193506677e+00
1.095124020180021951e+01,-2.303085409372735981e-01,1.126190823465951008e+00
1.085295671586604627e+01,1.417130112460550873e+00,1.126042796683189184e+00
1.056910632436613007e+01,3.110914068188375126e+00,1.125164868126095286e+00
9.994201171499312863e+00,4.718761329526984127e+00,1.124775150182269146e+00
9.229938037190727584e+00,6.198904772108155825e+00,1.125210774175301909e+00
8.255983267173169438e+00,7.551408104348333872e+00,1.125258418738039667e+00
7.078219254147290584e+00,8.781527719604994786e+00,1.126419266236919015e+00
5.655368193194712845e+00,9.952584939097130601e+00,1.126769910047542123e+00
4.062334393085402340e+00,1.092959906248361435e+01,1.126380302600962668e+00
2.409487901834912016e+00,1.165243568877965252e+01,1.125028677975366431e+00
5.572339668319612471e-01,1.209227180051940209e+01,1.125154422025630430e+00
-1.366050332812104084e+00,1.224433656467316744e+01,1.125466865818599560e+00
-3.309584158097343742e+00,1.205770351524040862e+01,1.125564782776691697e+00
-5.233631155220010100e+00,1.149154537772230533e+01,1.126102842289235406e+00
-7.083312219774078322e+00,1.055681525089082662e+01,1.126492706532373544e+00
-8.723231395463646010e+00,9.281837570585874886e+00,1.126036562151438991e+00
-1.015224515697365604e+01,7.735266115469631387e+00,1.126025641941383437e+00
-1.134910804042113774e+01,5.973378117345395921e+00,1.125965596540158042e+00
-1.224743568233324176e+01,4.013151715142806886e+00,1.124894996351007093e+00
-1.285426863944779186e+01,1.982321958964965880e+00,1.125593418291897851e+00
-1.303288264586743672e+01,-1.686183372960865512e-01,1.124713238447543784e+00
-1.282455027160842143e+01,-2.338013853144057297e+00,1.124529842288353620e+00
-1.224419395018096068e+01,-4.432644658224322853e+00,1.125478419927986806e+00
-1.122580412889480073e+01,-6.353314101049991613e+00,1.124890221912995036e+00
-9.910291105927836242e+00,-7.999380596952972766e+00,1.126076316332433214e+00
-8.378851776643216454e+00,-9.305867324570177956e+00,1.126001754047777359e+00
-6.681732286598496273e+00,-1.023803049548288513e+01,1.125090239563784733e+00
-4.913313549084140419e+00,-1.084327269054449161e+01,1.125024837692309099e+00
-2.974647930674399809e+00,-1.078583409090659373e+01,-1.017677822114053887e+00
-1.239891969304975916e+00,-1.093318024398859478e+01,-1.018435512599528803e+00
4.385539677325116514e-01,-1.088696769639463646e+01,-1.018283354962049136e+00
2.071400402276943886e+00,-1.067321783351081343e+01,-1.018612024871031085e+00
3.683361448831455665e+00,-1.022445981113909141e+01,-1.019365053303438629e+00
5.199288919419337240e+00,-9.579007938464391358e+00,-1.018859219575966923e+00
6.593671200926605636e+00,-8.706129051458834311e+00,-1.017662606687467219e+00
7.766674378193972217e+00,-7.607583823640286624e+00,-1.017804661723816118e+00
8.752729229647785658e+00,-6.386668482757706045e+00,-1.017928431881573781e+00
9.607164585671647217e+00,-4.975651639473328558e+00,-1.018187518363947497e+00
1.029011878184535966e+01,-3.449381533071836259e+00,-1.018194976734206225e+00
1.065695904123855975e+01,-1.806071827489077464e+00,-1.017524980120956490e+00
1.076617664083140191e+01,-1.748217062779113817e-01,-1.018630037104624408e+00
1.070212450291685968e+01,1.439373960738146163e+00,-1.019006291559217070e+00
1.043549004134402480e+01,3.090617119455621342e+00,-1.018317335960611025e+00
9.878098775721380065e+00,4.689933716447610479e+00,-1.018451497930109584e+00
9.156745835604549910e+00,6.150599933993566637e+00,-1.019382879159887789e+00
8.199286844657585505e+00,7.496434946323812909e+00,-1.019022882715338252e+00
7.024592741832481835e+00,8.706278147844594528e+00,-1.017964265153376457e+00
5.627803127714805953e+00,9.819949833499862279e+00,-1.017674865547812502e+00
4.098555856827338140e+00,1.075494217584119383e+01,-1.018355849322596152e+00
2.475283122536638736e+00,1.147553355680294551e+01,-1.018755902351990983e+00
6.531566841512379540e-01,1.190693873623407661e+01,-1.018128816205676967e+00
-1.263885133061303456e+00,1.202597005264130203e+01,-1.018479169496480985e+00
-3.187728385135109921e+00,1.184028242660720665e+01,-1.019252219171667084e+00
-5.067000806271675373e+00,1.124900618293634480e+01,-1.019346098632071929e+00
-6.856622055673062377e+00,1.029996720334743543e+01,-1.018782573391276980e+00
-8.435494849911307824e+00,9.033109838684254100e+00,-1.018753895167056278e+00
-9.790863787173591959e+00,7.529415354263562676e+00,-1.017476336893596400e+00
-1.093399735931435401e+01,5.805339943379843604e+00,-1.016749242091400607e+00
-1.180118470848159795e+01,3.918464794362598980e+00,-1.018416994467374881e+00
-1.234410665726774425e+01,1.921754040106402606e+00,-1.019433023601104660e+00
-1.249441075400597967e+01,-1.201129262165352429e-01,-1.019102972740236979e+00
-1.228534223918543411e+01,-2.183702107543752380e+00,-1.018130879419546941e+00
-1.170824000456692104e+01,-4.194897900333661944e+00,-1.017885529662943433e+00
-1.073920070883039379e+01,-6.030043884409263200e+00,-1.019373489469768135e+00
-9.478697167986213756e+00,-7.636220135666733633e+00,-1.018349140057235314e+00
-8.002840140968318750e+00,-8.911318011155575647e+00,-1.018215604729242774e+00
-6.390227641793597257e+00,-9.822521371481906627e+00,-1.018581841822088219e+00
-4.703305713480110839e+00,-1.041927944107270143e+01,-1.017903556653493302e+00
-2.847497431552963754e+00,-1.026208261096219587e+01,-3.161794897345984623e+00
-1.164805910740246198e+00,-1.042755130325662805e+01,-3.163008141223910830e+00
4.305328883983170485e-01,-1.037377632305429209e+01,-3.163599413777932856e+00
1.997526847573118713e+00,-1.016015962132857275e+01,-3.162683044995715065e+00
3.558132308568672464e+00,-9.706711894990473155e+00,-3.162533589340726259e+00
5.007070533774800936e+00,-9.116423572874158054e+00,-3.163708547811484362e+00
6.319765966662394874e+00,-8.304182858787990895e+00,-3.162844366146166486e+00
7.488139004029141788e+00,-7.291508006543937270e+00,-3.162455843333040750e+00
8.510244290190328798e+00,-6.112434430106228334e+00,-3.163187317292408540e+00
9.391723115149970269e+00,-4.774854906482620009e+00,-3.163276976819116459e+00
1.007418005313180487e+01,-3.287125859318029697e+00,-3.162537940041751483e+00
1.045846790043856345e+01,-1.699429765148262383e+00,-3.163191406590649013e+00
1.058542220270317458e+01,-1.046763926211626838e-01,-3.162685241286748106e+00
1.051433138952666724e+01,1.473913483436154914e+00,-3.161608942689495105e+00
1.024984704785653200e+01,3.061179296118466731e+00,-3.161777965804727586e+00
9.714768779076406346e+00,4.640492190686686946e+00,-3.162545954054495123e+00
9.011361941852817026e+00,6.096833306259414442e+00,-3.162980168084128518e+00
8.067405633717068980e+00,7.388550575369040807e+00,-3.163335390397147062e+00
6.906617088236346902e+00,8.561136366164767253e+00,-3.163197358033060791e+00
5.568694062607354667e+00,9.606908671537592426e+00,-3.162951251425757615e+00
4.091066534705841029e+00,1.049562911639161911e+01,-3.163411313275832804e+00
2.520599234296404312e+00,1.117602709491109003e+01,-3.163658942685457109e+00
7.550147722787876603e-01,1.158128956208786953e+01,-3.163235644939709434e+00
-1.112716374950911025e+00,1.170073048498099233e+01,-3.163125141966292908e+00
-3.005247826942730516e+00,1.150910522561868632e+01,-3.163017153862557773e+00
-4.844264410666070830e+00,1.092059339617992464e+01,-3.162975331062888973e+00
-6.572533667049242467e+00,9.970651591909094336e+00,-3.163567067738691563e+00
-8.080042499590625482e+00,8.731910376109768279e+00,-3.163719687303776062e+00
-9.351406447851738690e+00,7.277100690020098739e+00,-3.162918465245186717e+00
-1.042945111074472919e+01,5.616963417697219185e+00,-3.162390564324050857e+00
-1.123542396512631214e+01,3.811690382087911999e+00,-3.163045545685564619e+00
-1.166651218066320794e+01,1.900063657532199635e+00,-3.161719899645447640e+00
-1.179146288590428426e+01,-3.201893935069399788e-02,-3.162951553118642956e+00
-1.162225850891865520e+01,-1.967421776443999404e+00,-3.164936721161196509e+00
-1.104384757141306217e+01,-3.874356046582627222e+00,-3.164745841617420563e+00
-1.016087389994673806e+01,-5.606475972999986013e+00,-3.162931675198878079e+00
-8.983177127545070917e+00,-7.139654368145345487e+00,-3.162187089220154235e+00
-7.597684611640524110e+00,-8.380834651554806669e+00,-3.162595332931152470e+00
-6.065968777892091879e+00,-9.291940948705109449e+00,-3.162432160935452430e+00
-4.481074694590868823e+00,-9.892179001130257276e+00,-3.161768108079664685e+00
-2.765742161057783477e+00,-9.676531399571528524e+00,-5.305975619613216843e+00
-1.161151548470126471e+00,-9.855253401136010893e+00,-5.306738319638536261e+00
3.794332961248376712e-01,-9.824254423791284552e+00,-5.306798566915182924e+00
1.907633761071544587e+00,-9.621461711033237663e+00,-5.307275351803178332e+00
3.420397599371002961e+00,-9.192244184670629537e+00,-5.307884222592686996e+00
4.806235028373296636e+00,-8.642370722611136813e+00,-5.307174552351381358e+00
6.058702176663577355e+00,-7.886043860396178218e+00,-5.307388991666992517e+00
7.237810397929802519e+00,-6.929017433251916103e+00,-5.307986156298876601e+00
8.257185722520851812e+00,-5.828709146226330517e+00,-5.308112480018354340e+00
9.133889708524300488e+00,-4.540211336806125431e+00,-5.308158882552943325e+00
9.812612997459769559e+00,-3.103015023959634355e+00,-5.307527592348462164e+00
1.021174796584885769e+01,-1.587444787515174482e+00,-5.306215625592595408e+00
1.033413608243744441e+01,-4.352160457713161179e-02,-5.306823399144398934e+00
1.025428281267052633e+01,1.495511612843781313e+00,-5.307474947930536757e+00
9.980457029164414351e+00,3.026627959787374422e+00,-5.306585987896555778e+00
9.471463072876597167e+00,4.546010416205888305e+00,-5.307221512079431491e+00
8.789878155261877879e+00,5.947379488870037534e+00,-5.308168227018429164e+00
7.841560612908331507e+00,7.224669803074283081e+00,-5.306679008710650791e+00
6.710202878134694515e+00,8.344502785195356154e+00,-5.307705373313353903e+00
5.420691850656433886e+00,9.321932051332192160e+00,-5.307787538144612682e+00
4.000786121360088821e+00,1.015094668162774383e+01,-5.306490662610725551e+00
2.473009997112658453e+00,1.078664612714014659e+01,-5.307072742185750869e+00
8.005739849766531080e-01,1.115943159515550143e+01,-5.308100585252784498e+00
-9.685311289087779052e-01,1.127614339276451538e+01,-5.307465773470407377e+00
-2.758855561535633605e+00,1.108894829442821539e+01,-5.306334376850297296e+00
-4.550071729259215658e+00,1.049330067070911454e+01,-5.307161609384491108e+00
-6.219370315637753777e+00,9.581350833667388045e+00,-5.307544171637190722e+00
-7.634887085797679163e+00,8.404688835581680451e+00,-5.308563610045507808e+00
-8.834077813256026701e+00,6.980372552303592215e+00,-5.308126516257794414e+00
-9.840673881899180131e+00,5.415560833943131591e+00,-5.306892652386302700e+00
-1.059121824000269640e+01,3.731482241007960887e+00,-5.307833605991135073e+00
-1.095631082663830291e+01,1.895628348185126377e+00,-5.307853794945367021e+00
-1.105360807732761863e+01,7.364547537727261783e-02,-5.307436045912344191e+00
-1.087676069406938240e+01,-1.740932136509554695e+00,-5.307176876306578528e+00
-1.033846660284255314e+01,-3.518569823496503268e+00,-5.307617828485019729e+00
-9.557113792736473101e+00,-5.129947276717897964e+00,-5.307964440385031679e+00
-8.491014807284159360e+00,-6.571906834228984806e+00,-5.307341406487333657e+00
-7.177035841379257874e+00,-7.787797775473860540e+00,-5.307441332648058285e+00
-5.738551255258110828e+00,-8.690210300341384198e+00,-5.307678136602900665e+00
-4.280252628390289082e+00,-9.293315348056335523e+00,-5.306593322220873432e+00
-2.637558324342185401e+00,-9.066690892201190621e+00,-7.451527375959014599e+00
-1.094178051951113062e+00,-9.276279027562662094e+00,-7.451323726266119607e+00
3.913638946042481415e-01,-9.261280324069016245e+00,-7.451221584867894876e+00
1.840562776868105210e+00,-9.073659698281428376e+00,-7.450604742857032115e+00
3.295623006947818290e+00,-8.663802261499533586e+00,-7.450695182704709651e+00
4.605767448307178213e+00,-8.152534693653288755e+00,-7.451350982682011903e+00
5.796576301816793730e+00,-7.450376027249411948e+00,-7.451247514762822988e+00
6.956930618453169402e+00,-6.551543257474888193e+00,-7.451906614140909824e+00
7.971911346846502155e+00,-5.502254738214040763e+00,-7.452615816298094664e+00
8.819208861266986332e+00,-4.273072969140537580e+00,-7.452418974530715445e+00
9.460998304387620905e+00,-2.914503858863304764e+00,-7.451859702539240793e+00
9.861501299563112610e+00,-1.484521368252372575e+00,-7.451239083923010043e+00
9.983835680458117423e+00,-2.119107206155490530e-05,-7.451384162368414721e+00
9.900583440358062148e+00,1.486013213501744090e+00,-7.452117828707901737e+00
9.615424083869113403e+00,2.945208725376426973e+00,-7.451449365817119030e+00
9.133964688086136263e+00,4.421573721502204180e+00,-7.451359981433181900e+00
8.461590827065302634e+00,5.759047548972996644e+00,-7.452419625328075448e+00
7.540883893269146654e+00,6.959184758530509107e+00,-7.452188234931701238e+00
6.419123950669373357e+00,8.046308182117837049e+00,-7.451884909970457826e+00
5.193152475548542313e+00,8.955486175226596401e+00,-7.451763128374736311e+00
3.857638820030667048e+00,9.732968836345056829e+00,-7.450386820290996859e+00
2.365247340035673496e+00,1.029975453106965233e+01,-7.451655240396128477e+00
7.684757575897274151e-01,1.064720848237647033e+01,-7.451621877825934881e+00
-8.927393548991062744e-01,1.073141560442765474e+01,-7.450462209638828881e+00
-2.590091014930562707e+00,1.053547985054797032e+01,-7.450722571641023251e+00
-4.242561961944343096e+00,9.967653435325500411e+00,-7.451387131404908715e+00
-5.801142767839833070e+00,9.101711797141348370e+00,-7.451893864766989672e+00
-7.162447884697298761e+00,7.981610282490521513e+00,-7.451894526854229817e+00
-8.266739394660351792e+00,6.631004499773901273e+00,-7.451515863753786384e+00
-9.193086552120703914e+00,5.151435121323624244e+00,-7.451260792717576464e+00
-9.896798988103530093e+00,3.560149354135767830e+00,-7.451988375827217403e+00
-1.024561567489978842e+01,1.838239116518927574e+00,-7.451483815778003894e+00
-1.032746997051280147e+01,1.328196730488522270e-01,-7.451185292296281126e+00
-1.012650818620712379e+01,-1.551072551008314537e+00,-7.452187604581109071e+00
-9.637002595152148743e+00,-3.178580723445156409e+00,-7.452884175256438759e+00
-8.937675002346779252e+00,-4.657708542817514008e+00,-7.452299815040866804e+00
-7.954295086112345814e+00,-5.999057652057288692e+00,-7.451783533098484291e+00
-6.729803526562680105e+00,-7.159750452145433819e+00,-7.451365277381517771e+00
-5.447558122835354233e+00,-8.020471623969589459e+00,-7.451545907336786456e+00
-4.096976634481415580e+00,-8.642630999714736362e+00,-7.451721438374085515e+00
-2.427567021734205355e+00,-8.437304740310933582e+00,-9.595825042492629464e+00
-1.002546925252334908e+00,-8.644873765364136986e+00,-9.595537778487576830e+00
3.930061828863542495e-01,-8.657568628168583302e+00,-9.595687350048285325e+00
1.781422751373990643e+00,-8.485892717408741959e+00,-9.595647262403453226e+00
3.159587699715364906e+00,-8.111678222081636136e+00,-9.595684494842245726e+00
4.398943466521545886e+00,-7.620348202905395496e+00,-9.596931624232395208e+00
5.523229283475584062e+00,-6.958745940241083616e+00,-9.596095455992506018e+00
6.647581494153575576e+00,-6.128742012739011535e+00,-9.595371107676328393e+00
7.612536411104508183e+00,-5.129395898707304724e+00,-9.595802955932223099e+00
8.410570116333472512e+00,-3.962521519412019799e+00,-9.596522343029668889e+00
9.001926092222948483e+00,-2.692634978847353366e+00,-9.596009142907858447e+00
9.400085074296631760e+00,-1.372968038313426398e+00,-9.596011382805906820e+00
9.527652333088390435e+00,5.123044692222045171e-02,-9.595907512734722644e+00
9.451199771919121417e+00,1.459965317716589217e+00,-9.596457292390068616e+00
9.173741202942728989e+00,2.856659843516223596e+00,-9.597328669248758715e+00
8.703894966792883992e+00,4.210312953455053631e+00,-9.595974751604877895e+00
8.032615700050698138e+00,5.477288792554847241e+00,-9.596112785089520258e+00
7.129819297650941579e+00,6.620362609735837012e+00,-9.597540632711950792e+00
6.068522516703963809e+00,7.651925332959637061e+00,-9.597127051959304822e+00
4.908252085607800907e+00,8.489080394437188204e+00,-9.596379904196330912e+00
3.662912737490218618e+00,9.198178671718331145e+00,-9.596621829475914467e+00
2.224150356045758059e+00,9.719369390578279422e+00,-9.597410803626718945e+00
7.145235232255027213e-01,1.002637013358166840e+01,-9.596237773269793436e+00
-8.493667302729854818e-01,1.007903500838734878e+01,-9.594595152549898032e+00
-2.421386532281826209e+00,9.867264444802501089e+00,-9.595806105390378704e+00
-3.961158728854099476e+00,9.319812805388776766e+00,-9.596688981233247873e+00
-5.398764476750492314e+00,8.496891059299606752e+00,-9.595908530483832521e+00
-6.650113067533093059e+00,7.463593757660285988e+00,-9.595535565411573486e+00
-7.666672797051022670e+00,6.196632480381222940e+00,-9.596612294681268196e+00
-8.500865361508122220e+00,4.823417036434390681e+00,-9.597182298123279054e+00
-9.156145275059497379e+00,3.333091932630500409e+00,-9.596003284364662989e+00
-9.529584673305777187e+00,1.759020431798897555e+00,-9.596460021593937739e+00
-9.569326009910522401e+00,1.673379362414513238e-01,-9.595535455142240266e+00
-9.341803200346337377e+00,-1.390927822823968985e+00,-9.595612468482769941e+00
-8.913171001683021899e+00,-2.852953134214875952e+00,-9.596268686142201076e+00
-8.285548211486901238e+00,-4.201884869691169477e+00,-9.595496112423642643e+00
-7.359651773171792755e+00,-5.451416456267318189e+00,-9.595452629814305467e+00
-6.249078903420052455e+00,-6.495674545197021033e+00,-9.596025531231887840e+00
-5.076541065868381608e+00,-7.354950267201228797e+00,-9.596603483567658799e+00
-3.780220641832757522e+00,-8.007877019481771441e+00,-9.596358069274963043e+00
-2.229068733361258658e+00,-7.728971426062781980e+00,-1.174089397167209903e+01
-9.224849330966842231e-01,-7.940724861186482464e+00,-1.174049457710085242e+01
3.948311774183279610e-01,-7.980233090496860804e+00,-1.174057066692211748e+01
1.695032011295362517e+00,-7.841501308590235197e+00,-1.174070573433443876e+01
2.976768889119833172e+00,-7.497888251823504824e+00,-1.173980189650630912e+01
4.138417908524950839e+00,-7.032770283891738750e+00,-1.173953306364764337e+01
5.199539204118589275e+00,-6.408487486544921730e+00,-1.174091054089532982e+01
6.257451360112856520e+00,-5.621309760933804966e+00,-1.174047100109674879e+01
7.162519459938528676e+00,-4.677087665584255483e+00,-1.173929179197387107e+01
7.865907725720746591e+00,-3.585639944159224157e+00,-1.174025252303583144e+01
8.395110325736283130e+00,-2.419983712384603081e+00,-1.173948878753443381e+01
8.792036138995143801e+00,-1.219052429624554179e+00,-1.173980691231116325e+01
8.901652441412046812e+00,1.191120600190052059e-01,-1.174023721798086228e+01
8.865942101894864535e+00,1.435107719571936613e+00,-1.174121131024307196e+01
8.597540636905165456e+00,2.719560246278729387e+00,-1.174167475510855674e+01
8.148610338908770956e+00,3.965867020412589206e+00,-1.174002261964347227e+01
7.500392400727459830e+00,5.126206135531058194e+00,-1.174044992355783812e+01
6.637353876151714793e+00,6.184899456939941587e+00,-1.174068796147490445e+01
5.623544956001938822e+00,7.163120855809333776e+00,-1.174051529477523559e+01
4.559904016460230913e+00,7.922240362791294288e+00,-1.173986997314856318e+01
3.410792072017091670e+00,8.551465142625676918e+00,-1.173979752850562619e+01
2.057761700243527336e+00,9.029291386156060639e+00,-1.174173288734538723e+01
6.623302336799818946e-01,9.292996372563823826e+00,-1.174199502649279125e+01
-7.826845360126715168e-01,9.325906494558267923e+00,-1.174012002640082386e+01
-2.244350571531676941e+00,9.094942526112197001e+00,-1.173921773414654268e+01
-3.654466619146173656e+00,8.571449089212224592e+00,-1.173987312894079160e+01
-4.938127649623758941e+00,7.820425033847057783e+00,-1.174050797993307604e+01
-6.079825377759321192e+00,6.882244193316575220e+00,-1.174129091620177512e+01
-7.024080104327017793e+00,5.731624564484456563e+00,-1.174134566361626852e+01
-7.768802735179241026e+00,4.450001410364579968e+00,-1.174005620726700094e+01
-8.359235155528629946e+00,3.090510395099744123e+00,-1.174026348284667520e+01
-8.754618391859338544e+00,1.658402370008638549e+00,-1.174130333979107732e+01
