1.829597498712504544e+00,-7.620372637744517341e+00,1.799437878442371641e+01
2.918792579178045354e+00,-7.325166572156830647e+00,1.799388986355084796e+01
3.897043709779770548e+00,-6.743809097593599589e+00,1.799406311155079408e+01
4.705935563422324996e+00,-5.958900354786363707e+00,1.799551051396723267e+01
5.473331067761965762e+00,-5.155239044726431352e+00,1.799574301080950889e+01
6.100199514553826141e+00,-4.200327114946736273e+00,1.799479447254244491e+01
6.391168204299115807e+00,-3.074430311806620075e+00,1.799487633604228520e+01
6.478401609964985042e+00,-1.874537620540421612e+00,1.799561932333683600e+01
6.316475919558421026e+00,-7.080996623108826160e-01,1.799444521985551759e+01
5.998127249180596365e+00,3.836300403623180699e-01,1.799442209856400865e+01
5.725376424052886826e+00,1.379963443325941119e+00,1.799514990860838637e+01
5.268849887256113362e+00,2.266985817856598473e+00,1.799477283233060732e+01
4.709429745843642934e+00,3.055214655224164577e+00,1.799429687666322053e+01
3.947243563309143610e+00,3.498005865124978353e+00,1.614241510753286235e+01
3.313314799348071382e+00,4.016961404268599267e+00,1.614166120920721426e+01
2.548656180748730904e+00,4.444842849302856891e+00,1.614095269912333919e+01
1.734565766949190291e+00,4.698912244900569135e+00,1.614114341401709041e+01
9.905936365926697462e-01,4.854340954233023808e+00,1.614163781078834603e+01
2.568535163982944569e-01,4.911152605670990212e+00,1.614258422664262582e+01
-4.694605011295452934e-01,4.866874065426059381e+00,1.614288687534259026e+01
-1.223649163578581556e+00,4.776772359409981128e+00,1.614141270189588795e+01
-2.017133225459276868e+00,4.531373957101440197e+00,1.614147324728069677e+01
-2.745447556097897035e+00,4.123525618244424429e+00,1.614228354623038797e+01
-3.390147277604967258e+00,3.687761833417797064e+00,1.614154000594938054e+01
-3.972837093047576484e+00,3.142588378484740375e+00,1.614194502319096713e+01
-4.496766114255672520e+00,2.605235509795371662e+00,1.614207363407917128e+01
-4.924482145391651855e+00,1.830564869948025919e+00,1.614167715128504810e+01
-5.327030915398528244e+00,9.117804316268213194e-01,1.614255620087152110e+01
-5.634984413221365784e+00,-2.370220474521134157e-02,1.614188885483209646e+01
-5.833885629690916730e+00,-1.011544077707988709e+00,1.614166328079885915e+01
-5.886297296125593270e+00,-2.088504441652637933e+00,1.614112734522218062e+01
-5.711898086938758112e+00,-3.165675392449410097e+00,1.614106821516673307e+01
-5.355060537695811362e+00,-4.192412544576871625e+00,1.614159570846649316e+01
-4.788076315377020720e+00,-5.112476388191484311e+00,1.614122077174277692e+01
-3.983643415379883201e+00,-5.989009566354003056e+00,1.614159925066051215e+01
-3.328726778071513959e+00,-6.776143597327848767e+00,1.614179334693342938e+01
-2.449839790322681843e+00,-7.373388267670370588e+00,1.614174013871228652e+01
-1.389768511689036368e+00,-7.853887323452489966e+00,1.614169337773017787e+01
-3.619546280474183475e-01,-8.180881085260645946e+00,1.614114935959837638e+01
8.013668926639331280e-01,-8.321791008553022451e+00,1.614176323870258400e+01
1.982533513858121044e+00,-8.181522407169032007e+00,1.614233038943390142e+01
3.109078923692933927e+00,-7.802751379713931179e+00,1.614307198608464589e+01
4.091144029804972604e+00,-7.144184973924220472e+00,1.614259284280710816e+01
4.896184871154346752e+00,-6.270788321504080720e+00,1.614133999413168397e+01
5.658539298003169016e+00,-5.404048197478610760e+00,1.614237911610776877e+01
6.180266000043768138e+00,-4.374543799548804124e+00,1.614191033741153447e+01
6.441046544189997114e+00,-3.200224646603327727e+00,1.614092015451225492e+01
6.474507562755928980e+00,-1.990719995058479963e+00,1.614149833709445403e+01
6.310644230313815051e+00,-8.127802328238520335e-01,1.614189351388433735e+01
5.901796948705303691e+00,3.357133316690246172e-01,1.614288887995494548e+01
5.571256422708988687e+00,1.287987954168682725e+00,1.614219957906659531e+01
5.152141873187817467e+00,2.136618914196040109e+00,1.614172002162261421e+01
4.571511294700613348e+00,2.891400541373282174e+00,1.614239395304870683e+01
3.824445301889379145e+00,3.346428589628869243e+00,1.428873376226914971e+01
3.160086658267601933e+00,3.817222804077378129e+00,1.428858546157063181e+01
2.419564703138470829e+00,4.173440585169475803e+00,1.428853107461483418e+01
1.666739332466424361e+00,4.391789014573344474e+00,1.428853438981320068e+01
9.698098942562827229e-01,4.541711086708297707e+00,1.428810213979253341e+01
2.635186999515409800e-01,4.603345239828135149e+00,1.428829165027717885e+01
-4.546342730902537821e-01,4.608390897790977547e+00,1.428868239852364930e+01
-1.161135459183269214e+00,4.505825613405681551e+00,1.428896220719856913e+01
-1.914223563071109746e+00,4.259606500591580414e+00,1.428922332498170888e+01
-2.627112022806838976e+00,3.899415746865126486e+00,1.428784795949868780e+01
-3.276073215343591638e+00,3.525287459783347899e+00,1.428786050365292404e+01
-3.878434367423890805e+00,3.000811181015817564e+00,1.428820738999622186e+01
-4.411649269752905056e+00,2.436879912302075013e+00,1.428801142052716600e+01
-4.828638673920264246e+00,1.688114638676274648e+00,1.428872264004505332e+01
-5.273612485033824626e+00,8.687212044437581104e-01,1.428898396760057388e+01
-5.651749088161708734e+00,-4.453671737886188975e-02,1.428857365539399460e+01
-5.940236171219625660e+00,-1.078271875504059230e+00,1.428773516194051041e+01
-6.041356776186447952e+00,-2.193731288149526115e+00,1.428776046962100033e+01
-5.950815018049453897e+00,-3.342599148919122243e+00,1.428835968268762713e+01
-5.631473840959475119e+00,-4.447042918638976161e+00,1.428849717905628935e+01
-5.181722676809922490e+00,-5.550273590725838702e+00,1.428792212108127124e+01
-4.465274320699166744e+00,-6.557269586730191335e+00,1.428837804334243344e+01
-3.685640508872130017e+00,-7.379663705076182190e+00,1.428887438196839454e+01
-2.693315056027440146e+00,-8.057938985918584152e+00,1.428921539669966556e+01
-1.565122194006687506e+00,-8.561395861155313369e+00,1.428819307187698229e+01
-4.375057769688405207e-01,-8.843637555764544800e+00,1.428835335745805502e+01
8.145238649806875175e-01,-8.874640522506560103e+00,1.428839593816031517e+01
2.071412113486610362e+00,-8.642784033641150998e+00,1.428838515593059100e+01
3.223679923711017636e+00,-8.151532703644321032e+00,1.428890678244602341e+01
4.202589412735549423e+00,-7.408120950014639661e+00,1.428867359463322373e+01
5.040804447451891157e+00,-6.526247074508710888e+00,1.428768107518892982e+01
5.698392951471755730e+00,-5.547247434599666072e+00,1.428816636283726815e+01
6.210654147583951179e+00,-4.467805875907416180e+00,1.428894289394083295e+01
6.452901506976196799e+00,-3.275706567030531868e+00,1.428846524540069751e+01
6.484140949022075162e+00,-2.066412105269569643e+00,1.428808399948183627e+01
6.276683638477832616e+00,-8.652975433859182441e-01,1.428837740449511351e+01
5.847926544008259953e+00,2.636015838908909448e-01,1.428837536360101268e+01
5.485646393766529627e+00,1.216076357192214186e+00,1.428864967094569671e+01
5.002686825496571288e+00,2.018875049976007308e+00,1.428849188338665144e+01
4.446774516865874105e+00,2.739910316536726675e+00,1.428886092632620830e+01
3.598593325428721457e+00,3.401508609678885797e+00,1.243445076825991968e+01
2.906101506812486690e+00,3.829803076844097376e+00,1.243588578037426551e+01
2.215037606581789831e+00,4.108336735538012263e+00,1.243618307789975574e+01
1.536912280883680815e+00,4.285272925929330512e+00,1.243535107313087273e+01
8.419109596388945072e-01,4.398003355526933333e+00,1.243434966824809962e+01
1.656244590896730484e-01,4.443748246598054230e+00,1.243464793515371980e+01
-5.269886447635973026e-01,4.425437839645598004e+00,1.243449586967931886e+01
-1.179863537733498502e+00,4.364779239987732318e+00,1.243544895217306134e+01
-1.877956917763791589e+00,4.112440114807583313e+00,1.243611108466075521e+01
-2.551362419691090455e+00,3.828098513072577980e+00,1.243646835107875148e+01
-3.181122346617987429e+00,3.445465386786752848e+00,1.243617085141395329e+01
-3.771423831739954213e+00,2.945321408368162697e+00,1.243596813044921667e+01
-4.279111965225067316e+00,2.341583029895401680e+00,1.243598769086868217e+01
-4.730476504951914407e+00,1.657609764316235523e+00,1.243663467527226452e+01
-5.226583632093353415e+00,9.105201017020230214e-01,1.243616320289043742e+01
-5.663521589152839653e+00,1.979514917489066939e-02,1.243554875796669101e+01
-5.967106847506661538e+00,-9.622115061055398488e-01,1.243610478009746956e+01
-6.165827976395471310e+00,-2.077029116387603125e+00,1.243600386361460508e+01
-6.171743543145836064e+00,-3.260172232767101441e+00,1.243634741295339907e+01
-6.024912307262422217e+00,-4.488962017905880231e+00,1.243596980213945535e+01
-5.666093682324102154e+00,-5.777533790325288798e+00,1.243546283745594039e+01
-5.009203865830333946e+00,-6.905069489156208107e+00,1.243510012150765220e+01
-4.097775769348029229e+00,-7.772163964875313802e+00,1.243538186664103762e+01
-3.016905538407235632e+00,-8.529153681371795415e+00,1.243548570719646484e+01
-1.857913999605461219e+00,-9.052831841014155501e+00,1.243550458064751041e+01
-5.608736504583573534e-01,-9.309174238206978202e+00,1.243482421702223029e+01
7.915429912203518770e-01,-9.317375949826196546e+00,1.243461529228508766e+01
2.127337815930196552e+00,-8.987129920426918162e+00,1.243537526665387638e+01
3.339354196321835833e+00,-8.418258319403159717e+00,1.243538140529358316e+01
4.373653696105685107e+00,-7.608630899501185318e+00,1.243509490285478769e+01
5.261704673579589375e+00,-6.646215086642854430e+00,1.243530770308966282e+01
5.940817029987731424e+00,-5.538117742980952940e+00,1.243520053690730087e+01
6.372296736239586146e+00,-4.326700895421374149e+00,1.243509862063269722e+01
6.561854651769261082e+00,-3.067770030646861823e+00,1.243522375711265759e+01
6.478973470880903918e+00,-1.776644603379791354e+00,1.243573606774392815e+01
6.128268489805422270e+00,-5.210673473879147144e-01,1.243625846380045274e+01
5.758211722721946479e+00,5.061767726246648724e-01,1.243477046067895841e+01
5.332167647946691957e+00,1.422159544378278850e+00,1.243534506794822114e+01
4.812108696739578306e+00,2.186937186592106119e+00,1.243517185967722227e+01
4.224555475041652741e+00,2.844772946075244668e+00,1.243443382859649660e+01
3.561949146663140553e+00,3.406012902113568330e+00,1.058266664487342368e+01
2.809077859358859897e+00,3.813226384292615734e+00,1.058254615490677608e+01
2.133121220974941057e+00,4.070472399129206664e+00,1.058242346287450708e+01
1.460601736620368518e+00,4.234846906490428609e+00,1.058207045463594653e+01
7.537424400767204213e-01,4.345937941731403242e+00,1.058308020698591712e+01
5.966577152787641558e-02,4.384041486610525951e+00,1.058311361563863962e+01
-6.474243879407781677e-01,4.376836923276282043e+00,1.058256799363330458e+01
-1.312266202854304176e+00,4.321466599781532913e+00,1.058328545993956027e+01
-2.002768458309001520e+00,4.089111704967879568e+00,1.058279894989963488e+01
-2.699849515560357904e+00,3.787685308684093588e+00,1.058155880578756225e+01
-3.331783504397033635e+00,3.378637701074746147e+00,1.058157353002448531e+01
-3.933092515088987273e+00,2.865690000580013219e+00,1.058302429781591769e+01
-4.462436006657023668e+00,2.213659865487947354e+00,1.058354255751401851e+01
-4.942588127901966111e+00,1.506623800380374245e+00,1.058289383209638146e+01
-5.471049445635236985e+00,7.904859718014674019e-01,1.058181048381893419e+01
-5.975895714480372156e+00,-8.756165398091853014e-02,1.058120665611044409e+01
-6.380855060690367786e+00,-1.079524071381029682e+00,1.058284834388475559e+01
-6.699575029111612956e+00,-2.253680733065254405e+00,1.058307356574827729e+01
-6.737000762211904359e+00,-3.504572419957209028e+00,1.058234277297778547e+01
-6.469062402056199090e+00,-4.753681506496240772e+00,1.058276408541354563e+01
-6.085037232377549010e+00,-6.053223246158760062e+00,1.058211091615400079e+01
-5.426528477309523701e+00,-7.211026449898406909e+00,1.058244707839021892e+01
-4.409998818956118782e+00,-8.178965185885976652e+00,1.058321121069653792e+01
-3.279724848200550547e+00,-8.931411543970847688e+00,1.058254163393623237e+01
-2.094378120116152431e+00,-9.442514010627034438e+00,1.058225303764190883e+01
-6.604028174012801511e-01,-9.653755150236026594e+00,1.058267733607617700e+01
7.601679372357512676e-01,-9.534337925409660741e+00,1.058245201623662268e+01
2.104901490559956123e+00,-9.172183020503489104e+00,1.058314872554992903e+01
3.366424359077153206e+00,-8.575346853549012494e+00,1.058361311522120296e+01
4.454284724247979277e+00,-7.760799511028191766e+00,1.058351288039633786e+01
5.392074010329964473e+00,-6.780061377577387915e+00,1.058284111637314773e+01
6.079376596521535170e+00,-5.601500994267945899e+00,1.058254272480961333e+01
6.482939974111516790e+00,-4.325530382234317628e+00,1.058214528386780984e+01
6.672151564395744749e+00,-3.022606230705617847e+00,1.058229511146142166e+01
6.601363653058033520e+00,-1.723172451432087415e+00,1.058301512063428795e+01
6.296293669968664020e+00,-5.022634514738023581e-01,1.058248637428965999e+01
5.931661333350038312e+00,5.326033320270580074e-01,1.058194663646631106e+01
5.451618975411653523e+00,1.451951193681635166e+00,1.058293529634569197e+01
4.891034433500580647e+00,2.222818432649565246e+00,1.058422445765887154e+01
4.266418285045755709e+00,2.865552819340335233e+00,1.058404223558980561e+01
3.691691972232423513e+00,3.466700785595541845e+00,8.728602445700392565e+00
2.905881136869707504e+00,3.887493451534061339e+00,8.729816605865627466e+00
2.195815318109145320e+00,4.166916018076664230e+00,8.730100922714434830e+00
1.488183423356188140e+00,4.335144736730546455e+00,8.730116687270545128e+00
7.626473181342753316e-01,4.418572055371500440e+00,8.730085523246831514e+00
3.486293234289972176e-02,4.455940318795949651e+00,8.729414665040476251e+00
-7.338404394830775335e-01,4.446513406593485485e+00,8.729077202630591614e+00
-1.438288680784461926e+00,4.363138503577316918e+00,8.730290076342503980e+00
-2.132627997132640285e+00,4.172905260810951589e+00,8.730176287750818886e+00
-2.846117200684348258e+00,3.855694429659624944e+00,8.729576654522439583e+00
-3.535135890149142757e+00,3.415863949637697683e+00,8.729801487378480829e+00
-4.148648934276629952e+00,2.878382930205584334e+00,8.730441914876063692e+00
-4.717460732087872088e+00,2.191933363107851029e+00,8.729629835057624021e+00
-5.256067719937518312e+00,1.485096637102589767e+00,8.729222403088666482e+00
-5.833373807783218901e+00,7.418783089080184245e-01,8.729498998907581964e+00
-6.392793655052392054e+00,-1.673881139879261903e-01,8.729643381933190227e+00
-6.850199638023423354e+00,-1.206689932713576940e+00,8.729017466976104700e+00
-7.128309068788410308e+00,-2.420829915693126999e+00,8.728977085655653667e+00
-7.098293908038146860e+00,-3.698300825477367937e+00,8.729684429439396709e+00
-6.834508101935821145e+00,-4.963411270049639334e+00,8.729046323879771307e+00
-6.405487096524581148e+00,-6.273817705027163072e+00,8.728984408020160402e+00
-5.696583802668250485e+00,-7.444345371385767685e+00,8.729740426991982716e+00
-4.658065531471263121e+00,-8.482655160256294735e+00,8.729280309652526881e+00
-3.474978359897762825e+00,-9.245206190470092622e+00,8.729402544667602015e+00
-2.220482213550523998e+00,-9.732659472021751412e+00,8.729921500866600681e+00
-6.920875897154359357e-01,-9.872075023583656517e+00,8.729788393547419645e+00
7.478828502850534132e-01,-9.726508927577734553e+00,8.729455181665811025e+00
2.122097882561062132e+00,-9.295835850710925996e+00,8.730282284410456839e+00
3.419327852063313244e+00,-8.672402121512583051e+00,8.729747439226075656e+00
4.553755582061040030e+00,-7.821115514839982907e+00,8.728456961358986632e+00
5.499861158037964159e+00,-6.770220998690255954e+00,8.729321894625094558e+00
6.179336095509270876e+00,-5.556292749875832548e+00,8.729272781200926090e+00
6.582217060883641224e+00,-4.239124691817085733e+00,8.728955755346646583e+00
6.764352659252821809e+00,-2.914705177210548115e+00,8.728790387313962285e+00
6.694850212320067051e+00,-1.637563915091456490e+00,8.729858256434198438e+00
6.462606265896178037e+00,-4.704217981066304288e-01,8.729678560080786909e+00
6.116954765846332798e+00,5.531047056935963768e-01,8.729792183694842223e+00
5.642154826082308006e+00,1.480848289639241866e+00,8.729797985433238594e+00
5.033910238349482036e+00,2.262495857307082137e+00,8.728721079150231432e+00
4.384539705097376228e+00,2.912179003975055913e+00,8.728058404014833016e+00
3.813467690118268916e+00,3.585035485543484057e+00,6.875977525892032816e+00
3.022835506978369668e+00,4.084928102242659342e+00,6.876632799553089370e+00
2.264325081919434712e+00,4.399139345639709653e+00,6.875933096903898978e+00
1.511786575745824868e+00,4.588672626747847261e+00,6.875776250157757730e+00
7.244241835648663752e-01,4.674873755399243436e+00,6.876823146528721509e+00
-7.508763161647179218e-02,4.704382139735564294e+00,6.876998952758287764e+00
-8.747252142511293682e-01,4.657452155881003364e+00,6.876441413919697432e+00
-1.617372963808068498e+00,4.544183754460204838e+00,6.876589906674440478e+00
-2.321657437842174154e+00,4.315951558705939384e+00,6.876621189426465719e+00
-3.060935183984128560e+00,3.972777136570800671e+00,6.876849698020415680e+00
-3.793811996134933029e+00,3.528704269638951452e+00,6.877306029717195734e+00
-4.425373462782634881e+00,2.961875852386197217e+00,6.876529061920318320e+00
-5.039107295997416358e+00,2.261055026266491019e+00,6.877150953050040982e+00
-5.635210992466963553e+00,1.528710036197325595e+00,6.877447734639686061e+00
-6.216059316297488202e+00,7.278090966862815758e-01,6.876872514168753447e+00
-6.749298136988564956e+00,-2.264029151777315896e-01,6.876216637263903309e+00
-7.174259310415662227e+00,-1.313069748373202561e+00,6.876543450446768624e+00
-7.406232415002246050e+00,-2.569357519318933747e+00,6.877230600611308198e+00
-7.369705772110029862e+00,-3.842644028533949818e+00,6.876719897692514571e+00
-7.073604590480907284e+00,-5.116502711602270992e+00,6.876037158806210137e+00
-6.585431085080325708e+00,-6.389393614076064765e+00,6.877094092641671708e+00
-5.823587968249396951e+00,-7.567796718062167471e+00,6.876769486830374589e+00
-4.774983897905769048e+00,-8.615236633712683556e+00,6.876038472237990362e+00
-3.572005148089318016e+00,-9.359523049872956690e+00,6.876213219207779836e+00
-2.223995689055787484e+00,-9.816896976721771750e+00,6.876802057057028961e+00
-6.904395393323028429e-01,-9.929584415495090965e+00,6.876948690244805817e+00
7.493274095710087401e-01,-9.752252087939272229e+00,6.877181009730480632e+00
2.128601191465960163e+00,-9.299300863099304593e+00,6.876585760787957469e+00
3.441183549080590431e+00,-8.642213939024506075e+00,6.876312289568069502e+00
4.591079098897968613e+00,-7.765513855551963829e+00,6.876390243966347349e+00
5.513447824900344685e+00,-6.650699145352046315e+00,6.875961676421256996e+00
6.183547809504123194e+00,-5.438006099842431773e+00,6.876805328125525030e+00
6.593334001844308290e+00,-4.137909360950761339e+00,6.876541060053035004e+00
6.779633868190188650e+00,-2.822709890416450484e+00,6.876357272910967211e+00
6.760875431633153632e+00,-1.595882574587346170e+00,6.876165677862847048e+00
6.555634235873356808e+00,-4.522882665685008519e-01,6.876067007545661802e+00
6.253761679130628082e+00,5.788916902271636911e-01,6.875786916159651874e+00
5.806105782626674205e+00,1.538148194461702145e+00,6.875596779402222580e+00
5.197947017715949691e+00,2.345911604581467635e+00,6.875801399841951600e+00
4.517779813863588068e+00,3.001213556476838740e+00,6.876041332140912843e+00
3.942940735798245111e+00,3.877995219626187318e+00,5.024459351582834188e+00
3.136106697497506257e+00,4.409146807486145292e+00,5.023225015663499882e+00
2.316073188929678839e+00,4.786820617903565278e+00,5.023488416091121955e+00
1.484876590833611232e+00,5.004992950109402372e+00,5.023974057991933861e+00
6.424482089819060215e-01,5.090018401549337490e+00,5.023134555114212141e+00
-1.776971125483174929e-01,5.067506818190186557e+00,5.023706103315649152e+00
-9.964680000881637190e-01,4.988486156377797798e+00,5.023779012541335298e+00
-1.795871801501991660e+00,4.828849214367808784e+00,5.023843106009699966e+00
-2.563795479913783204e+00,4.571184165369521324e+00,5.023809018819084038e+00
-3.326828139758639225e+00,4.170357500247554583e+00,5.023916512144899649e+00
-4.080404975614142060e+00,3.687224783007831519e+00,5.024231706115140028e+00
-4.739340832724574071e+00,3.111658578709732836e+00,5.024410868914939599e+00
-5.396453499198990755e+00,2.385809336520908985e+00,5.024260455700801487e+00
-6.041077331320884980e+00,1.608032402041032149e+00,5.023333750917933216e+00
-6.618229614794656435e+00,7.536404422467848363e-01,5.023785705081834863e+00
-7.102552597003039203e+00,-2.589418772932193802e-01,5.023463946765616583e+00
-7.459222685421205590e+00,-1.432440810005730203e+00,5.023043412229218241e+00
-7.630427712602855905e+00,-2.686971124465197036e+00,5.023128653302859625e+00
-7.525933200548781343e+00,-3.964341089847241761e+00,5.023693909315777972e+00
-7.174604426843846028e+00,-5.235336182890041101e+00,5.023424625615549033e+00
-6.600860227642459499e+00,-6.490835410464591781e+00,5.023584633886553519e+00
-5.805018925459557444e+00,-7.580222570551166328e+00,5.023675810527116425e+00
-4.768397970576988776e+00,-8.567184605086428206e+00,5.022783886611238202e+00
-3.567125115669583124e+00,-9.309203570674204897e+00,5.023364581362890213e+00
-2.176690375169629377e+00,-9.739069237464681450e+00,5.023759512080689937e+00
-6.788995400174684391e-01,-9.832639037147465899e+00,5.024252006610060661e+00
7.528094349745878544e-01,-9.636514385035578556e+00,5.023147857633643021e+00
2.120976193005860377e+00,-9.183900422081263670e+00,5.023300481592152700e+00
3.427317331219985164e+00,-8.514546901030527692e+00,5.024312828383292739e+00
4.584228575675325601e+00,-7.620074298908621202e+00,5.023879370694694479e+00
5.484478806718342980e+00,-6.507918022097566535e+00,5.023331318988828897e+00
6.153652751315894065e+00,-5.312034289296650336e+00,5.022565341925979254e+00
6.571987939176527682e+00,-4.045954185215029142e+00,5.022502718741585603e+00
6.786993508277105569e+00,-2.770876058092852201e+00,5.023345747243103787e+00
6.813102135693924311e+00,-1.561754645247106499e+00,5.023855475667852843e+00
6.666538234809732621e+00,-4.252735517150456057e-01,5.023570790488579796e+00
6.375189821311010085e+00,6.200228693456376616e-01,5.023620487184802030e+00
5.925504326965972623e+00,1.586516746372401698e+00,5.023625648545342770e+00
5.333018602501886640e+00,2.443331391444213185e+00,5.023772371571411988e+00
4.650608756018712597e+00,3.200439301506119438e+00,5.024376140623315834e+00
4.113000599282080394e+00,4.215197395802993796e+00,3.171897663597375239e+00
3.275405619407062208e+00,4.781109697227079458e+00,3.171004347821108738e+00
2.385768213120253556e+00,5.199459740670294039e+00,3.169059901323512562e+00
1.494203638555048563e+00,5.439353981688894280e+00,3.169605484890254399e+00
6.022668472129936168e-01,5.535302109991802944e+00,3.170743748267541129e+00
-2.658293527112695065e-01,5.516184553491513931e+00,3.170778184246710651e+00
-1.128196406348184189e+00,5.414365545582457528e+00,3.170684702896908735e+00
-1.977919223094519285e+00,5.201316407306595835e+00,3.170222616045609954e+00
-2.805694942119273616e+00,4.861367766347907349e+00,3.170299169823963314e+00
-3.615986671702761335e+00,4.427052224527526114e+00,3.170207376934349952e+00
-4.395192826595725855e+00,3.883568564959865910e+00,3.171250778948392579e+00
-5.061885682859192492e+00,3.235885480585950713e+00,3.170268836063323548e+00
-5.744625483505947372e+00,2.534454647070599531e+00,3.169807770950030523e+00
-6.396170615905848678e+00,1.724526097649714540e+00,3.171057286906210582e+00
-6.949654741147657688e+00,7.850614049827491225e-01,3.170772215729918297e+00
-7.398721194204807894e+00,-2.710165268434425734e-01,3.170834498440412652e+00
-7.707574674183125474e+00,-1.489698077453438518e+00,3.171076608481141701e+00
-7.771984012331387248e+00,-2.755101671751674530e+00,3.170598574704469819e+00
-7.545742541572318274e+00,-3.992577527408161409e+00,3.169941912234748305e+00
-7.135218196222896658e+00,-5.227254974200829629e+00,3.169263921502249115e+00
-6.516212597861908762e+00,-6.422179117702176754e+00,3.170405187423058102e+00
-5.662132111084009267e+00,-7.493018276633098829e+00,3.170224786698156549e+00
-4.648215528419112452e+00,-8.425032695668582150e+00,3.170091892387421506e+00
-3.423147454421488156e+00,-9.128268708464334580e+00,3.171071356781323125e+00
-2.067961399102279163e+00,-9.519484838734541654e+00,3.171449579375185124e+00
-6.497710313122524450e-01,-9.588478125735665714e+00,3.171500911921143473e+00
7.500991918002737346e-01,-9.380069723191805764e+00,3.171098076997978410e+00
2.092772607035271459e+00,-8.946983902390929444e+00,3.170247732244666050e+00
3.390383287535310597e+00,-8.312411652286945341e+00,3.170347531097768901e+00
4.522831018465473640e+00,-7.417530728641856363e+00,3.171115915683465403e+00
5.424898319041938421e+00,-6.326361922024074325e+00,3.170241177267013821e+00
6.076906395634487978e+00,-5.159537936338840503e+00,3.171216567730601010e+00
6.496745886254008617e+00,-3.922919045069536814e+00,3.170866164249822372e+00
6.754502877382099868e+00,-2.704578544954320041e+00,3.170774733874038631e+00
6.831357633178815725e+00,-1.522561426254588124e+00,3.170768575061072791e+00
6.720995721539164691e+00,-3.796703891827331034e-01,3.170789826809756740e+00
6.480807392588107341e+00,7.178196239245845378e-01,3.170914506252839882e+00
6.046164598511720278e+00,1.812093806366401827e+00,3.170535967415056611e+00
5.461154136073679943e+00,2.706102764768791413e+00,3.171041202128653591e+00
4.782282833794180732e+00,3.485789038571009968e+00,3.171570173232018508e+00
4.255619888669093243e+00,4.540545549334172648e+00,1.317436939357488512e+00
3.399177111425323972e+00,5.136902217049853725e+00,1.316819892757695509e+00
2.464856935314763575e+00,5.586474100565814283e+00,1.317179871708073158e+00
1.505142881895150220e+00,5.832889073044173145e+00,1.318451706967504133e+00
5.730456358808120321e-01,5.937515022956684874e+00,1.318319445942641055e+00
-3.425801805454208870e-01,5.939751429165298191e+00,1.317415875265957048e+00
-1.248862355847386807e+00,5.846440125973487945e+00,1.317045013392854180e+00
-2.179947058757050193e+00,5.583102933720886618e+00,1.317010904701357399e+00
-3.070258433318262536e+00,5.197177748221988303e+00,1.317287343830271462e+00
-3.910029129323806529e+00,4.715072013916580929e+00,1.317849863464338522e+00
-4.696679880452382605e+00,4.115577433607182201e+00,1.317773585305832995e+00
-5.391150348461138719e+00,3.402668781334694081e+00,1.318141452255125801e+00
-6.079996998735948566e+00,2.659525539360571678e+00,1.317721539486395921e+00
-6.725896894099557599e+00,1.827892781101593922e+00,1.317618863457982181e+00
-7.232416617176336437e+00,8.085578687291122835e-01,1.318028167188896704e+00
-7.598143193734967937e+00,-2.906416181947036881e-01,1.317443229841820607e+00
-7.795931700128218012e+00,-1.514217599700836470e+00,1.317041199946429542e+00
-7.777394491978341762e+00,-2.751358033239377221e+00,1.316555888531340424e+00
-7.481522557057606271e+00,-3.956795611594923212e+00,1.316434335546139422e+00
-6.973032858139387891e+00,-5.096799225984588233e+00,1.317410237284869057e+00
-6.336821211258955699e+00,-6.249820894367980273e+00,1.318265800511755348e+00
-5.463239021265050788e+00,-7.246609211486350510e+00,1.318073039429668691e+00
-4.498169414894030993e+00,-8.120063608532419153e+00,1.318099197927222965e+00
-3.275854120136168390e+00,-8.767494971670277693e+00,1.317475392924534194e+00
-1.955197816709527636e+00,-9.130482266395340218e+00,1.317593800712546281e+00
-6.116395391957368810e-01,-9.194864800733370203e+00,1.317804514348698941e+00
7.414228213685440938e-01,-8.991828399448058562e+00,1.318104327042522783e+00
2.028285358125261784e+00,-8.590281912069562154e+00,1.318168715010670455e+00
3.290896932286738963e+00,-7.953005866951868619e+00,1.317280510902942625e+00
4.381475320621234459e+00,-7.085506768295060098e+00,1.317107158342855966e+00
5.270492407078591235e+00,-6.060966683904664087e+00,1.317622759995494608e+00
5.931921478775319834e+00,-4.935127508036407207e+00,1.317603866849825334e+00
6.393539348670045364e+00,-3.760770474076511327e+00,1.317536673381419998e+00
6.704682849801851141e+00,-2.584517016645749177e+00,1.317455498257971369e+00
6.857265089593909124e+00,-1.408140819507916586e+00,1.317669020081449371e+00
6.791378795529960044e+00,-2.305576059164110569e-01,1.317434747653858151e+00
6.555801807601933540e+00,8.658586432773804908e-01,1.316621561909864457e+00
6.132420020154935258e+00,1.916959827264744565e+00,1.316652699390469694e+00
5.576005203603854099e+00,2.883605985741561906e+00,1.317397935999387704e+00
4.928114236401754056e+00,3.734053307264634469e+00,1.317642366029363465e+00
4.316783512710325788e+00,4.790129715269353383e+00,-5.361593135206008665e-01
3.463984517054267354e+00,5.405354714879710976e+00,-5.366114402273098882e-01
2.510226920778968918e+00,5.872077984605962087e+00,-5.354485603820200446e-01
1.506196579510997058e+00,6.141475237082359762e+00,-5.355050084285061240e-01
5.774609914499495567e-01,6.296859091940705255e+00,-5.356661704623365550e-01
-3.751222625917169373e-01,6.320360711224292771e+00,-5.352009745410449826e-01
-1.379991442310504191e+00,6.214480130110263012e+00,-5.357033875768278941e-01
-2.352588541693363844e+00,5.917172229452217991e+00,-5.361398414508474763e-01
-3.304696102689456794e+00,5.507466577383132389e+00,-5.352760879502632685e-01
-4.189449182404320737e+00,5.001573739620735815e+00,-5.345428910568227332e-01
-4.989776259355934940e+00,4.355643570357477401e+00,-5.354134378003343464e-01
-5.726718015858584643e+00,3.590662139441498812e+00,-5.349974417644589586e-01
-6.389627661953875659e+00,2.808125013399311420e+00,-5.347102874266727035e-01
-6.979661144301847031e+00,1.892531653241372069e+00,-5.349202826889262186e-01
-7.424910897938917564e+00,8.277574178628656076e-01,-5.353171658286667300e-01
-7.689650359368562782e+00,-3.211080371413346235e-01,-5.351082783899643314e-01
-7.770383363978816682e+00,-1.524627022126738618e+00,-5.353858438363791050e-01
-7.643374820204524411e+00,-2.688576346844796294e+00,-5.352910393749492624e-01
-7.288773964117582160e+00,-3.839534172559414760e+00,-5.350647496080734866e-01
-6.723467328865495141e+00,-4.913860024588497133e+00,-5.343977459234933169e-01
-6.075297760344559705e+00,-5.963896806660270222e+00,-5.349122477600336545e-01
-5.231560948901520014e+00,-6.917062494786367921e+00,-5.344680146252174247e-01
-4.279334248692928000e+00,-7.696593176958783644e+00,-5.350957199482556659e-01
-3.088136213177651967e+00,-8.284564773797427506e+00,-5.358589843725857227e-01
-1.813147578800947013e+00,-8.608568884053026338e+00,-5.356410333535124302e-01
-5.714252984811630798e-01,-8.666272384612955904e+00,-5.357890872289945428e-01
7.197625081663748814e-01,-8.482615901400503589e+00,-5.357779114290922573e-01
1.966447217965911598e+00,-8.105166775559972336e+00,-5.360690858796963720e-01
3.139925372739222453e+00,-7.498324291814316034e+00,-5.353411684616415922e-01
4.202401765369933706e+00,-6.696162268668102158e+00,-5.352085189584540048e-01
5.061284603495369794e+00,-5.743641211655364565e+00,-5.358110302920915391e-01
5.726971389257813350e+00,-4.691677483529889336e+00,-5.352535521496347704e-01
6.241272472234496327e+00,-3.594455556934388341e+00,-5.348047096325599936e-01
6.627555616218502976e+00,-2.444911060668509606e+00,-5.347926831289804284e-01
6.825363124043937191e+00,-1.292601923162885580e+00,-5.355063267155829587e-01
6.803844021050562851e+00,-1.124617081260278484e-01,-5.355589032663220506e-01
6.575699771340406841e+00,1.029942706747317471e+00,-5.348803832225709209e-01
6.179516872156320062e+00,2.090652708728484743e+00,-5.353913419617911673e-01
5.735066543355397783e+00,3.110944213868386488e+00,-5.353884096538826798e-01
5.086263205789629538e+00,3.996511215557699614e+00,-5.356331910545797381e-01
4.261167242032058766e+00,4.951443601971234010e+00,-2.388984875328221680e+00
3.484112839601405831e+00,5.538038446577041363e+00,-2.388728803340077533e+00
2.543122917866775801e+00,6.004723039174454158e+00,-2.387861292904737365e+00
1.635641961427551028e+00,6.354663689817908079e+00,-2.388538149909642527e+00
5.992179942561255412e-01,6.544181283153434059e+00,-2.389169154274003226e+00
-4.476237989826006847e-01,6.575981770910917845e+00,-2.389284156504602130e+00
-1.489651536869728954e+00,6.492015965265759192e+00,-2.388318740309538946e+00
-2.510770705723992524e+00,6.181820318023341976e+00,-2.387391250054603287e+00
-3.493428634752980599e+00,5.771712084006166421e+00,-2.388132863162983455e+00
-4.396012470056765764e+00,5.229224679989431301e+00,-2.388517385386786263e+00
-5.210258103117941353e+00,4.534186991646378395e+00,-2.388608240691148410e+00
-5.965922536438865720e+00,3.741213788601751133e+00,-2.387768985079206985e+00
-6.600008144533824783e+00,2.889639588670406489e+00,-2.388097609626945506e+00
-7.133681324612949126e+00,1.917205716895536094e+00,-2.387954930135137044e+00
-7.489871242658737494e+00,8.148809727682201354e-01,-2.387408071907750173e+00
-7.664857139063008695e+00,-3.416776960167974275e-01,-2.388783056803661875e+00
-7.670732688862533344e+00,-1.505144875436493113e+00,-2.388446249002309507e+00
-7.420367118746430179e+00,-2.598668163828710576e+00,-2.388861504081772225e+00
-7.010037795088041257e+00,-3.663754598731800094e+00,-2.388454789221363228e+00
-6.425431479846446692e+00,-4.678379986587463790e+00,-2.388278497462603234e+00
-5.782766789771828009e+00,-5.668710391221074119e+00,-2.388029039963497802e+00
-4.922877321269484518e+00,-6.549347378049633406e+00,-2.387245117063842237e+00
-3.970806765565710439e+00,-7.259654437905858515e+00,-2.387714216254467559e+00
-2.840202653259368937e+00,-7.772690348850058939e+00,-2.388076819385297700e+00
-1.627546137830932604e+00,-8.024177507626507833e+00,-2.387905038263203661e+00
-4.753809410323739382e-01,-8.076169614540278374e+00,-2.388513831654387687e+00
7.375411021747975138e-01,-7.910918145445873684e+00,-2.388170572362219080e+00
1.903392721210430683e+00,-7.556710711612864451e+00,-2.388403578465541965e+00
3.002625672683905123e+00,-7.000767536566280036e+00,-2.389480553565037635e+00
4.000777085511697528e+00,-6.279197179938512896e+00,-2.389263975831167564e+00
4.856853095560371258e+00,-5.431131632835448642e+00,-2.388777272661068984e+00
5.526731567459572503e+00,-4.451168595772259096e+00,-2.388010078657380575e+00
6.088307056987241950e+00,-3.417564713277075228e+00,-2.387893785266658853e+00
6.499662553367972606e+00,-2.314151247217688834e+00,-2.388240072313513984e+00
6.726193707567533764e+00,-1.166835423494436252e+00,-2.387850277604675497e+00
6.750708090283104923e+00,3.327688547551943543e-03,-2.388060767688160446e+00
6.548623877142054184e+00,1.200613943360118840e+00,-2.388977581979869758e+00
6.204956991248072207e+00,2.294191918928786045e+00,-2.388142989248057457e+00
5.720295661885199223e+00,3.295937577657597206e+00,-2.387839049435546812e+00
5.040823343097374121e+00,4.191735601490010232e+00,-2.388460822180347165e+00
4.162497169739499014e+00,5.029511497742889858e+00,-4.240765493263658037e+00
3.431012294408813723e+00,5.583162657155659403e+00,-4.240440326844729491e+00
2.600431237018023367e+00,6.093335069764411749e+00,-4.241772899219213855e+00
1.597009668363494006e+00,6.454448725250156116e+00,-4.242625993798772477e+00
5.749323162354328387e-01,6.666236534242465872e+00,-4.242098487458867417e+00
-4.668359668277360375e-01,6.704215698058296979e+00,-4.241780647629188827e+00
-1.539328801870815111e+00,6.631523566551846827e+00,-4.241554895262305891e+00
-2.586023881288920467e+00,6.345555319476342326e+00,-4.241004706051621831e+00
-3.585398731629653835e+00,5.929563756214632164e+00,-4.241399142792701582e+00
-4.516431411401025109e+00,5.361206568899730129e+00,-4.241536988771383854e+00
-5.329266143135770406e+00,4.655342004877971895e+00,-4.240913177465385431e+00
-6.088884727733871571e+00,3.829583750076850368e+00,-4.240808179585703108e+00
-6.672660226076141399e+00,2.936991055313338261e+00,-4.241373081690348101e+00
-7.155786529745729041e+00,1.921967358579632412e+00,-4.241541724741864527e+00
-7.469480256657903716e+00,8.179563025703739942e-01,-4.240956771485751453e+00
-7.591238185429379115e+00,-3.202466829326919839e-01,-4.241368372229153749e+00
-7.467965473479682537e+00,-1.426438209234195398e+00,-4.241371027264697169e+00
-7.130676300130463829e+00,-2.488523312704124635e+00,-4.241477837935219597e+00
-6.675476737263116078e+00,-3.491782137082135584e+00,-4.240824107589244107e+00
-6.128534959059337872e+00,-4.454190323936337847e+00,-4.240827460428748807e+00
-5.398011939062467235e+00,-5.322059060459107371e+00,-4.241252387488987807e+00
-4.559341931338566134e+00,-6.126744311091212758e+00,-4.242126919307206201e+00
-3.627734231408848764e+00,-6.731297799473964005e+00,-4.241910726044691771e+00
-2.554225096773625747e+00,-7.169116334650142974e+00,-4.241543109698716840e+00
-1.421083550263234185e+00,-7.364676041811573981e+00,-4.241801423005481908e+00
-3.669965934504537675e-01,-7.403613776265613566e+00,-4.242562224091099843e+00
7.550652583310327737e-01,-7.262268882872440656e+00,-4.241530975722167973e+00
1.836544876050917541e+00,-6.960320380888096459e+00,-4.241192103140932090e+00
2.849563039245758489e+00,-6.458663549954133387e+00,-4.241608561897533214e+00
3.787943903007321200e+00,-5.832952996466407747e+00,-4.241875951319647342e+00
4.645140390818059295e+00,-5.087294454422464085e+00,-4.240733650717380065e+00
5.319302464592586155e+00,-4.183441323458946037e+00,-4.241705341384199635e+00
5.907538324726911760e+00,-3.212110834267951631e+00,-4.241932986207991085e+00
6.366574029660045042e+00,-2.160968311746041426e+00,-4.241785366115285782e+00
6.602189524439882717e+00,-1.030634118602610449e+00,-4.241993279043592580e+00
6.679719671523997704e+00,1.213903662462192390e-01,-4.241387217837746526e+00
6.492022157235428637e+00,1.366289318150057941e+00,-4.240941464635390901e+00
6.090802859487969734e+00,2.440700380549802873e+00,-4.241987161901044523e+00
5.576370484245666503e+00,3.398096223163578955e+00,-4.242288923247355292e+00
4.924233296261048665e+00,4.277364393947555854e+00,-4.241485760435560692e+00
4.079314490904575763e+00,5.011320900569995906e+00,-6.094976435521306968e+00
3.350882297733737580e+00,5.589875293591552108e+00,-6.094281000934233639e+00
2.484081012322131965e+00,6.064852653584972941e+00,-6.093471272934259275e+00
1.518888208550542407e+00,6.446085237365863918e+00,-6.093268111594712266e+00
5.182806328610737312e-01,6.708223554219012286e+00,-6.094919876230973976e+00
-5.217804559097151129e-01,6.758222174300144935e+00,-6.093942863392251219e+00
-1.558863666660798009e+00,6.651591865666633296e+00,-6.094275849856484406e+00
-2.592660136515316349e+00,6.364055212633114245e+00,-6.094152945779499397e+00
-3.579269625956343237e+00,5.954467933610755104e+00,-6.094131176544337336e+00
-4.495463667882210856e+00,5.399957977011610843e+00,-6.094719750889838750e+00
-5.307926277259022996e+00,4.701411753018379436e+00,-6.094532104283777230e+00
-6.053301038879217444e+00,3.884612156030214258e+00,-6.093689503844569977e+00
-6.634552146315082055e+00,2.965865925132493253e+00,-6.094160241724935645e+00
-7.089637893477334529e+00,1.945200322406499538e+00,-6.093968052562638071e+00
-7.347908982193797733e+00,8.410099677928087880e-01,-6.092994310683652159e+00
-7.451582020803878770e+00,-2.579498927374923589e-01,-6.094114128858470814e+00
-7.245668965975974984e+00,-1.347142751802856919e+00,-6.095084462795473890e+00
-6.840529121561266912e+00,-2.344307036892195661e+00,-6.095705312308724366e+00
-6.332469511857794942e+00,-3.278906518731235842e+00,-6.094581959839829643e+00
-5.745429999308812263e+00,-4.159186148606717204e+00,-6.093604789279045697e+00
-5.015504984462442195e+00,-4.949293424024084231e+00,-6.094125356681747263e+00
-4.173138344912258546e+00,-5.612701521004603400e+00,-6.093853491105998721e+00
-3.262674898177163385e+00,-6.113141283725368247e+00,-6.093963539105991423e+00
-2.271120966081956016e+00,-6.478092465076864315e+00,-6.094152267266836454e+00
-1.247170920307515196e+00,-6.622665228830416417e+00,-6.094384443015600006e+00
-2.708904289978695257e-01,-6.652660344719134144e+00,-6.094509288400947966e+00
7.342754570618477139e-01,-6.541538703570656033e+00,-6.095035410954618982e+00
1.731297692435664892e+00,-6.273307555311077977e+00,-6.094247315442389734e+00
2.690538184919679665e+00,-5.896525781080680595e+00,-6.094462544449839925e+00
3.595849662518816547e+00,-5.382164153332506196e+00,-6.095446046104899374e+00
4.419780615417437275e+00,-4.713857969752211829e+00,-6.094565446852207025e+00
5.098282625654331213e+00,-3.882303812499249052e+00,-6.093624636474556766e+00
5.703261010086036364e+00,-2.969671702302105309e+00,-6.094766084946373397e+00
6.162219889085458036e+00,-1.946369988839261600e+00,-6.095364158827166534e+00
6.406860570045441960e+00,-8.607321285314875059e-01,-6.094604574986251855e+00
6.426744932738726490e+00,2.487079084543107610e-01,-6.094951350383365885e+00
6.210223093904739144e+00,1.418797348887387511e+00,-6.094664679507073579e+00
5.829784409504658704e+00,2.454924098491714446e+00,-6.093412761406434619e+00
5.377378165048277481e+00,3.391027085351364878e+00,-6.094233862844040672e+00
4.783096075136434422e+00,4.264199386505170608e+00,-6.095252591829503963e+00
4.002385122550833785e+00,4.893058706427840576e+00,-7.947757834207581418e+00
3.202410533311646823e+00,5.519079834404097440e+00,-7.947495596414375640e+00
2.328481151474131039e+00,6.000936611010849298e+00,-7.947602839411659126e+00
1.424733759053463888e+00,6.372841382420537215e+00,-7.948050466871309894e+00
4.425145962129898303e-01,6.623894657337746850e+00,-7.947271970070390879e+00
-5.609541822612578166e-01,6.670881325652254112e+00,-7.946789265387653955e+00
-1.550252542508408160e+00,6.537825595259369571e+00,-7.946705877708769350e+00
-2.512630873059516823e+00,6.257236713282486207e+00,-7.947531773105415809e+00
-3.457280212170292355e+00,5.875261405406138948e+00,-7.947277883042836777e+00
-4.334992862107429623e+00,5.338590575422564655e+00,-7.946623587155286828e+00
-5.110821318812353908e+00,4.655354690383230576e+00,-7.947087979777649913e+00
-5.818391805996681043e+00,3.887839236269616805e+00,-7.948180260519125184e+00
-6.391727568371560864e+00,2.976176107824856309e+00,-7.948022870347152491e+00
-6.816754567175623336e+00,1.971364354229353522e+00,-7.947988378744779148e+00
-7.073177115216648048e+00,9.151767124228566974e-01,-7.948303735849033380e+00
-7.101290532665441191e+00,-1.580001116818908757e-01,-7.947436124486541686e+00
-6.892768012576516057e+00,-1.177500197838512008e+00,-7.948004359100679039e+00
-6.446314064094136320e+00,-2.134322718036266053e+00,-7.947536136678468033e+00
-5.892484353498041116e+00,-2.974791566899723794e+00,-7.946774499433050920e+00
-5.294914021540543914e+00,-3.764081695437826891e+00,-7.946393103110867884e+00
-4.587107248854225716e+00,-4.444767516533520535e+00,-7.948009562975341780e+00
-3.782468908899456750e+00,-4.988731169133913568e+00,-7.946911346928160036e+00
-2.912512599448654704e+00,-5.425139402380978915e+00,-7.946761784716975363e+00
-2.001202382646141587e+00,-5.701019372805094854e+00,-7.946928255750910886e+00
-1.119374094880327686e+00,-5.823604850920577114e+00,-7.946674042276253402e+00
-2.094479459433157276e-01,-5.851098739465847132e+00,-7.946676977381829765e+00
7.045453002773527373e-01,-5.774960745608805901e+00,-7.947076740122881233e+00
1.619338975759807564e+00,-5.608661225220563651e+00,-7.947443027755283218e+00
2.563363051714953933e+00,-5.371780511861341978e+00,-7.947700428656862215e+00
3.395840299390874062e+00,-4.908257904554764295e+00,-7.948002083091267878e+00
4.147765179095276977e+00,-4.262428716013329399e+00,-7.947412187838831521e+00
4.795148887799124182e+00,-3.488301503638836287e+00,-7.947103090065723130e+00
5.339647966188833195e+00,-2.626239327197112061e+00,-7.947649524546768873e+00
5.768048109941434021e+00,-1.658948864348979146e+00,-7.947483870839391784e+00
5.986954858733185780e+00,-6.243485558352369624e-01,-7.946738998352201655e+00
5.995225211654654274e+00,4.148130968710382893e-01,-7.947161113857775128e+00
5.809279366244985532e+00,1.429569470120571895e+00,-7.946978936475303179e+00
5.489654536965940856e+00,2.388275594892077969e+00,-7.946084825871955637e+00
5.099489634905893354e+00,3.294781442317000320e+00,-7.946332817466881693e+00
4.620067680460694604e+00,4.142703706437497857e+00,-7.947116603570796300e+00
3.750076555150932300e+00,4.702136886292597850e+00,-9.800508973728161877e+00
2.947186194217543243e+00,5.318056265141871464e+00,-9.800019162318269750e+00
2.085133768059915127e+00,5.778551376276826801e+00,-9.800267363797825482e+00
1.251636874990606163e+00,6.142927465387177932e+00,-9.800906318750572055e+00
3.872504001209288171e-01,6.357689459025049672e+00,-9.800222451284756886e+00
-5.567029297503133245e-01,6.391982350763678156e+00,-9.799995590123977252e+00
-1.476358165979305914e+00,6.243425523715418812e+00,-9.800205508478892824e+00
-2.331472563969370082e+00,5.974129750255526616e+00,-9.800626170439672435e+00
-3.201952455836994282e+00,5.628219097828626616e+00,-9.800789844857607847e+00
-3.999095269545142717e+00,5.133454914764493004e+00,-9.799793511862960216e+00
-4.703629031511673553e+00,4.517649198670220301e+00,-9.800477086712977126e+00
-5.356646538128351231e+00,3.830133785393389445e+00,-9.800677180581716996e+00
-5.898758969107600336e+00,2.983227331198507137e+00,-9.800687296411318528e+00
-6.251756707143421465e+00,2.017239618375868293e+00,-9.800399040227301128e+00
-6.500663523553690482e+00,1.040242095618741702e+00,-9.800262637924708642e+00
-6.506536376386888421e+00,4.111919201235514354e-02,-9.800151163337371685e+00
-6.325581310597956808e+00,-9.037675146620229860e-01,-9.800039079460324487e+00
-5.920764841441825688e+00,-1.786244886265381249e+00,-9.800358997286391372e+00
-5.374770712978405030e+00,-2.526721678789987990e+00,-9.801090029978366758e+00
-4.817934964431191958e+00,-3.232125590822107597e+00,-9.801088816844432117e+00
-4.171154182183501646e+00,-3.824532031235588825e+00,-9.800560073077534184e+00
-3.436588378400830202e+00,-4.280751513903892302e+00,-9.801002952298667026e+00
-2.596819778081233654e+00,-4.655258665816096375e+00,-9.800437709030971334e+00
-1.797845593477251702e+00,-4.861456960547782202e+00,-9.800179155232163097e+00
-1.005146613176757686e+00,-4.971325917482531942e+00,-9.799697688212761548e+00
-1.770728691931387488e-01,-5.024635714511653362e+00,-9.799620829427936997e+00
6.270847088643175526e-01,-4.966803195991547071e+00,-9.800390398737341968e+00
1.491244597549881368e+00,-4.917501298691022704e+00,-9.799853810191219594e+00
2.313364412189723662e+00,-4.658801558479778393e+00,-9.799552324374420920e+00
3.075299081641979182e+00,-4.248113380476819856e+00,-9.800221766002886525e+00
3.752450316392144991e+00,-3.661382436965880949e+00,-9.799951654611817276e+00
4.374095463918425075e+00,-2.955491365419057548e+00,-9.800427286830453610e+00
4.889656033431603710e+00,-2.183060016786081192e+00,-9.800662218266637637e+00
5.287652034902572851e+00,-1.296747467313759783e+00,-9.800069510317239718e+00
5.442878214947362459e+00,-3.234089940873549063e-01,-9.799813887092660991e+00
5.432873269108238645e+00,6.257661770387861200e-01,-9.800096181207853974e+00
5.307014660644564508e+00,1.456708856388610140e+00,-9.800103551506872179e+00
5.044136669360830716e+00,2.322214703953386028e+00,-9.799887893316540755e+00
4.709352272519692129e+00,3.165028442675076104e+00,-9.799747157639316697e+00
4.314002463929048403e+00,3.965434091818438755e+00,-9.800121496076856786e+00
3.274295805123823566e+00,4.447172557617232513e+00,-1.165353166987700106e+01
2.569611007347186948e+00,5.006646680591689602e+00,-1.165385415679513059e+01
1.814941581669161419e+00,5.440165109396179588e+00,-1.165424262782113018e+01
1.046447194543547843e+00,5.761367929779058983e+00,-1.165336690497138861e+01
2.651937008256226580e-01,5.942132943279387014e+00,-1.165350788463844900e+01
-5.305325978129095121e-01,5.998493493213167937e+00,-1.165353708776135733e+01
-1.334679757821993995e+00,5.862555527328308536e+00,-1.165377840410335608e+01
-2.090880895421980412e+00,5.578959749698181092e+00,-1.165349232011213410e+01
-2.844721806688224941e+00,5.294990684450484153e+00,-1.165332188748820030e+01
-3.543546590383037653e+00,4.851080193353297432e+00,-1.165315334389035584e+01
-4.160625817952251282e+00,4.327838768415525728e+00,-1.165296160475508813e+01
-4.714870125904580433e+00,3.726097182835196087e+00,-1.165292745926042528e+01
-5.183059798824601216e+00,3.015035951273675963e+00,-1.165296934221985481e+01
-5.503879151179806861e+00,2.125192619549445716e+00,-1.165342203550230593e+01
-5.771202550899040773e+00,1.263517997984761498e+00,-1.165289762615692304e+01
