1.640880353366593436e+00,6.133593072112136779e-01,-1.986659446284724595e+01
1.510958409558763593e+00,1.062576070524483773e+00,-1.986631172363460252e+01
1.395241809457790083e+00,1.492881750805662433e+00,-1.986614324306013302e+01
1.179781918429919418e+00,1.826850741873183637e+00,-1.986611332626099724e+01
-1.306196463609386793e+00,1.555052332068523890e-01,-2.196329212220030769e+01
3.811434741435499873e+00,6.628790672896206715e+00,1.997142575301908707e+01
2.963407786891162576e+00,6.800657929854604156e+00,1.997142577195112167e+01
2.173517827072159569e+00,6.886167879914548706e+00,1.997142582283007428e+01
1.437743289477590114e+00,6.892308289087048401e+00,1.997142580690598024e+01
7.260391099956987615e-01,6.857928454424971676e+00,1.997142586153339394e+01
-2.445175869924975931e-02,6.829136356959351950e+00,1.997142586640038786e+01
-8.740329129466484215e-01,6.805452626015473960e+00,1.997142578837854643e+01
-1.782867801119454088e+00,6.695734072098836087e+00,1.997142578381276579e+01
-2.631478167675098234e+00,6.382570154278800700e+00,1.997142579461596767e+01
-3.349971367612348594e+00,5.903855994098987203e+00,1.997142579135097051e+01
-3.992484638589640866e+00,5.357452348902417505e+00,1.997142579783253424e+01
-4.568809848913770288e+00,4.729724233008663070e+00,1.997142581453320176e+01
-5.085507907340387490e+00,4.027311816108295695e+00,1.997142587727226370e+01
-5.507857746096036067e+00,3.229907702334107622e+00,1.997142593761845220e+01
-5.804476817547615575e+00,2.350424555210530286e+00,1.997142589328396411e+01
-5.933344295720483608e+00,1.400358599077725419e+00,1.997142589610094632e+01
-5.851215093050855742e+00,4.159063533059410567e-01,1.997142588555270137e+01
-5.575813320357738689e+00,-5.449493501610935819e-01,1.997142586050447477e+01
-5.094312088194274502e+00,-1.467210032720758450e+00,1.997142582358192797e+01
-4.460439460747024576e+00,-2.310995417308870703e+00,1.997142586707888512e+01
-3.683593551343947503e+00,-3.076584888972295762e+00,1.997142587376855616e+01
-2.774562981898395897e+00,-3.762739570954123369e+00,1.997142580693236980e+01
-1.745684757750128213e+00,-4.354326609722114050e+00,1.997142581508963843e+01
-6.044960754539755454e-01,-4.850975257568474142e+00,1.997142581394463434e+01
6.307438813039641934e-01,-5.232926174563962363e+00,1.997142583832508578e+01
1.955340720063497795e+00,-5.369549569313559090e+00,1.997142585267250681e+01
3.271027684668834201e+00,-5.211398016816237266e+00,1.997142579117083017e+01
4.478031604051309067e+00,-4.812708148977323575e+00,1.997142578957653569e+01
5.549152833938348905e+00,-4.225406301953924526e+00,1.997142582165266944e+01
6.487394866994217857e+00,-3.506046790593475126e+00,1.997142577305121236e+01
7.268782172200914715e+00,-2.618196513339904108e+00,1.997142569994623784e+01
7.846628358097883726e+00,-1.562400910318178848e+00,1.997142574085484767e+01
8.179765952801172801e+00,-4.059747426083597510e-01,1.997142575579844248e+01
8.262554059444232379e+00,8.084049306960223724e-01,1.997142582920943354e+01
8.101573695482336745e+00,2.019086851225840196e+00,1.997142588272145858e+01
7.704148759130051261e+00,3.155589829562032822e+00,1.997142589807544866e+01
7.139742515204726914e+00,4.169452376624162682e+00,1.997142584035224289e+01
6.456537383745304837e+00,5.049635599570339473e+00,1.997142580809637380e+01
5.631133506552989054e+00,5.784960315023002231e+00,1.997142573999283144e+01
4.837594312165046873e+00,6.060608151288452206e+00,1.811773021006817430e+01
4.048708958732698093e+00,6.411065181429934867e+00,1.811712564936633640e+01
3.223629885925331173e+00,6.692668035571066376e+00,1.811728837691286031e+01
2.413748374413037912e+00,6.772326625852747917e+00,1.811727428320845590e+01
1.680160345111123332e+00,6.743000597788912032e+00,1.811787355416061374e+01
9.672483391862146673e-01,6.562542043567145988e+00,1.811730827171539460e+01
2.923986177346263871e-01,6.416974219192797868e+00,1.811700960414724904e+01
-4.812455178269712253e-01,6.310601290399940666e+00,1.811785471010530912e+01
-1.271937364639420753e+00,6.144917753136933669e+00,1.811889021228027019e+01
-2.014879339865521146e+00,5.927833966208819305e+00,1.811736787880680666e+01
-2.775713795556280505e+00,5.623499268671389828e+00,1.811691932625954493e+01
-3.491361593333093705e+00,5.107868115795380248e+00,1.811673362748852512e+01
-4.173734686058470089e+00,4.538538089415672161e+00,1.811730059001238402e+01
-4.761450292521114847e+00,3.816161005289301578e+00,1.811749001621444677e+01
-5.229959781579190725e+00,2.971261811249846119e+00,1.811722930506251572e+01
-5.576072316659242745e+00,2.069379299774690928e+00,1.811768043483118973e+01
-5.706255676665859866e+00,1.093580330490822261e+00,1.811805829578170801e+01
-5.609474114463417926e+00,7.075885152742511508e-02,1.811782789080296396e+01
-5.324033141547727332e+00,-9.201839575356163259e-01,1.811710975191726192e+01
-4.853031430121369283e+00,-1.838592605687468184e+00,1.811764570761877025e+01
-4.210968281297871485e+00,-2.702768220065113525e+00,1.811712345673184998e+01
-3.356342640083081363e+00,-3.486590533004052084e+00,1.811663275040832843e+01
-2.417436394805961619e+00,-4.048151723227973342e+00,1.811720472092250489e+01
-1.413827943368256568e+00,-4.491438776390558552e+00,1.811775949472691849e+01
-1.768800428338430653e-01,-4.700312932088916540e+00,1.811713227107578206e+01
1.091669816787659508e+00,-4.808445633453387380e+00,1.811705225404820752e+01
2.317788037317535466e+00,-4.844580130781051430e+00,1.811752310118874476e+01
3.491230891019317717e+00,-4.607068770562834814e+00,1.811846473474705022e+01
4.584913110747655729e+00,-4.212409005365853609e+00,1.811736587249720642e+01
5.518737348824405586e+00,-3.613629656090513009e+00,1.811676649248295590e+01
6.363147972593234059e+00,-2.990779282653122539e+00,1.811770727217512444e+01
6.996400487031424476e+00,-2.121535275258555231e+00,1.811765614747282527e+01
7.576594156162460791e+00,-1.263227668625678035e+00,1.811727676686031785e+01
7.906364288844835997e+00,-1.776212662986822455e-01,1.811672785852062262e+01
7.971589564376523995e+00,1.007274774105728854e+00,1.811723094594728778e+01
8.053317585088796804e+00,2.064536647398113711e+00,1.811720963229891979e+01
7.747943160788548056e+00,3.119625121276984103e+00,1.811772743199232139e+01
7.169640614181908234e+00,4.136802885718075196e+00,1.811788709051389645e+01
6.377629138030762590e+00,4.964508658157445353e+00,1.811818265976079090e+01
5.592583498316952451e+00,5.603966507745607117e+00,1.811794140331100422e+01
4.994917459524319092e+00,5.846897457595544800e+00,1.626392627123745527e+01
4.243480023889286024e+00,6.156144882922684580e+00,1.626380474827446321e+01
3.490320838698316663e+00,6.401998851096199594e+00,1.626327221941966883e+01
2.740600188877643451e+00,6.461388470696096675e+00,1.626321651882262387e+01
2.100731035108923006e+00,6.457620409840833631e+00,1.626225336821913103e+01
1.479727966264249073e+00,6.431194571399281301e+00,1.626257250110678498e+01
8.455327637742645619e-01,6.377450649700850072e+00,1.626407625849328298e+01
7.885622951776283251e-02,6.333763867654626623e+00,1.626349586002057990e+01
-6.862743150926560176e-01,6.199663334435837392e+00,1.626251199806764802e+01
-1.441741181355082668e+00,6.027021701168206569e+00,1.626292064750388988e+01
-2.267582127010864923e+00,5.667866430294378866e+00,1.626353575293709497e+01
-3.059999186909606372e+00,5.171533198568203815e+00,1.626389250458735347e+01
-3.769174692482513134e+00,4.562255621732146160e+00,1.626275035665734947e+01
-4.406975469410310708e+00,3.774236590121638368e+00,1.626342257969584892e+01
-5.056067010978906318e+00,2.921503071935779072e+00,1.626384414855691318e+01
-5.414702757449447290e+00,1.906461462862714118e+00,1.626328663471471359e+01
-5.523831119943648282e+00,8.529496905539025731e-01,1.626297350432015776e+01
-5.471799204732801236e+00,-2.427579359857398034e-01,1.626219218938383548e+01
-5.214348910279701599e+00,-1.304901088409544663e+00,1.626279595468029626e+01
-4.649365351961812109e+00,-2.269097733262892103e+00,1.626348836892075767e+01
-3.898210512264763672e+00,-3.158594807544788274e+00,1.626361556465906588e+01
-3.100812557874402131e+00,-4.080872618086702985e+00,1.626374797927441662e+01
-2.097742363755679129e+00,-4.694545436855471543e+00,1.626256030279464326e+01
-1.037976669823513776e+00,-5.170129380018853027e+00,1.626302817559927050e+01
3.020891757933759081e-01,-5.368631733996416244e+00,1.626401619565782752e+01
1.627724447840074085e+00,-5.586895127047204035e+00,1.626435011465169467e+01
2.886570625941609958e+00,-5.513589407582509594e+00,1.626411538401617918e+01
4.106934154738624443e+00,-5.221836881789822193e+00,1.626335181443653255e+01
5.222689420617685485e+00,-4.802672990476063219e+00,1.626349775782498241e+01
6.174305921491285432e+00,-4.118214831355265559e+00,1.626330518587491269e+01
6.947792999393669788e+00,-3.256448248386643485e+00,1.626306374622036799e+01
7.515176366882006853e+00,-2.260024802886089645e+00,1.626354010945451378e+01
7.852953282833617266e+00,-1.183992465593439514e+00,1.626356143663836207e+01
8.062866537040324744e+00,-3.871544619149158706e-02,1.626273317802750640e+01
8.079569929756566182e+00,1.117353932792643167e+00,1.626336780710424534e+01
7.980074170324697569e+00,2.154324291090248700e+00,1.626272987861038644e+01
7.758441678194398783e+00,3.085496886260735483e+00,1.626304151575176604e+01
7.229965671494206880e+00,4.015119734445581123e+00,1.626398837756152105e+01
6.460054340535851480e+00,4.793526694795407828e+00,1.626358120046333511e+01
5.722274177494496072e+00,5.417053854166974602e+00,1.626363007820984308e+01
5.390694156073724486e+00,5.374165757130608512e+00,1.440831002088774504e+01
4.672064506911064896e+00,5.743771363909106142e+00,1.441037165171613488e+01
3.912711012776151964e+00,5.992281818234594049e+00,1.440977859415678175e+01
3.203904095044073141e+00,6.112460920299506384e+00,1.440856530086464105e+01
2.533567812931763807e+00,6.194448931748381959e+00,1.440906904987467563e+01
1.848499513747940970e+00,6.190407499589766438e+00,1.440958096201811145e+01
1.145581663867827782e+00,6.168748622445932028e+00,1.440921891010865075e+01
3.575784986888475014e-01,6.104237949192681256e+00,1.440809562939362465e+01
-4.547768661448838845e-01,6.031513199153867077e+00,1.440985468627249411e+01
-1.250618416250171228e+00,5.874034337576334863e+00,1.441009702556881855e+01
-2.133697689684814769e+00,5.461541853779974254e+00,1.440955387930790188e+01
-3.027491099858637735e+00,4.908958818232317611e+00,1.440856023191139279e+01
-3.814668296028275396e+00,4.223957875873156631e+00,1.440909930121839011e+01
-4.607306703088936750e+00,3.463005649496109228e+00,1.440863877734194176e+01
-5.185453520683820372e+00,2.467789568124055144e+00,1.440960189415419102e+01
-5.565536130170895213e+00,1.371453837146454191e+00,1.440918284886156719e+01
-5.770483499784669235e+00,2.192137709367181220e-01,1.440890486809511373e+01
-5.718675418060738203e+00,-9.589342925488530955e-01,1.440937833959845449e+01
-5.404476807889965428e+00,-2.123988412172029161e+00,1.440931881925596159e+01
-4.887575602432066901e+00,-3.252000219839047634e+00,1.440955561241501748e+01
-4.167265115281072241e+00,-4.317270910392396743e+00,1.440939654656105340e+01
-3.221173357855312780e+00,-5.239088107106981695e+00,1.440931391030076369e+01
-2.154698792954401920e+00,-5.994218558587464329e+00,1.440916671582807496e+01
-8.979751064767866886e-01,-6.497796255133378551e+00,1.440960799809155191e+01
5.795972971339018454e-01,-6.626035187367268264e+00,1.440920907731143075e+01
1.982737203389253633e+00,-6.620247514200581662e+00,1.440868832358154528e+01
3.291815197141368277e+00,-6.371464347037683496e+00,1.440935989166913522e+01
4.511798383108384769e+00,-5.920247847653087092e+00,1.440893018155506056e+01
5.588242690313878214e+00,-5.272157076805474851e+00,1.440914577532897312e+01
6.456258442167311706e+00,-4.460759114314679863e+00,1.440985820957320840e+01
7.160453118109868065e+00,-3.520179545951471312e+00,1.440877531652811072e+01
7.609895051741331962e+00,-2.497172030116132202e+00,1.440935365120030909e+01
7.911893569246165825e+00,-1.421427584924746412e+00,1.441005051897898781e+01
8.067007861965155513e+00,-3.351325673213954026e-01,1.440972505613913057e+01
8.070783876069834051e+00,7.207594547802329554e-01,1.440941229404428192e+01
7.972070266478969103e+00,1.675626745492883485e+00,1.440921643473802582e+01
7.773361042633282203e+00,2.555428886769796737e+00,1.440911991969028172e+01
7.340832367903017186e+00,3.456735313850636260e+00,1.440997521355756383e+01
6.795711401513590211e+00,4.237889071565257737e+00,1.440983630439025198e+01
6.120304735383843564e+00,4.890995152693477621e+00,1.440888489725855948e+01
5.941475397753579024e+00,4.506204970533953080e+00,1.255500311671664626e+01
5.204207760156722706e+00,5.000688397562850440e+00,1.255488252939211691e+01
4.413112250594543262e+00,5.341973472453521055e+00,1.255441377444357087e+01
3.606913960424042109e+00,5.510491607997419550e+00,1.255399772481035470e+01
2.798939087581802987e+00,5.689641197061048317e+00,1.255330725343235621e+01
1.996285535336883576e+00,5.769509442914236175e+00,1.255439909549046362e+01
1.163697648061505108e+00,5.758379224471211089e+00,1.255552339187981303e+01
2.317916687193168901e-01,5.728344179155008042e+00,1.255560712849243998e+01
-6.523982661660583382e-01,5.666845517589842451e+00,1.255551846624007695e+01
-1.574181827633446717e+00,5.432087020258797416e+00,1.255587848480923796e+01
-2.566441618549551329e+00,5.036209352741098932e+00,1.255601397267211006e+01
-3.645886650329014600e+00,4.461304239047731102e+00,1.255548922681260038e+01
-4.598092328668262674e+00,3.693845800558205994e+00,1.255566645246723922e+01
-5.397729823945843108e+00,2.771568347474273164e+00,1.255612627711640528e+01
-6.011653937521154845e+00,1.648922414040702833e+00,1.255482770668748849e+01
-6.437189356317652766e+00,4.315851948775187297e-01,1.255463732043033431e+01
-6.609574204307464562e+00,-8.547748902423117912e-01,1.255564480502878233e+01
-6.443700462190698808e+00,-2.160114645858672411e+00,1.255582739527439706e+01
-5.985944714529816579e+00,-3.440123122420428281e+00,1.255529654430727327e+01
-5.159419933582279683e+00,-4.600386198590065590e+00,1.255497526658080609e+01
-4.395911103217807536e+00,-5.696685151267248060e+00,1.255584163401312381e+01
-3.334767181359923782e+00,-6.606534055842380404e+00,1.255570250295472157e+01
-2.096597201688135570e+00,-7.261368828114356688e+00,1.255507417251960867e+01
-7.497577811550728555e-01,-7.711975567338305915e+00,1.255566396805995488e+01
6.846487513843269035e-01,-7.840861298221349251e+00,1.255609348112652057e+01
2.081011095107048181e+00,-7.634767445000515629e+00,1.255519646916126675e+01
3.366402344605087471e+00,-7.092332115240168378e+00,1.255488295567975499e+01
4.500428292628427585e+00,-6.541549793246618449e+00,1.255522407844796362e+01
5.464283381314675836e+00,-5.819721566589024064e+00,1.255423440580537964e+01
6.272981619926881969e+00,-5.007508403315958923e+00,1.255461397434337378e+01
6.955516835758427163e+00,-4.168284195893437349e+00,1.255579674418163094e+01
7.452962273479791122e+00,-3.282204882338894070e+00,1.255598252812966997e+01
7.820658586494498188e+00,-2.350655263792909899e+00,1.255518873519423728e+01
8.084769019385063871e+00,-1.407854108684660543e+00,1.255363153810810317e+01
8.308428967563292744e+00,-5.381609281566286374e-01,1.255477754689310466e+01
8.395124850430267571e+00,3.550106666041363823e-01,1.255473259940067798e+01
8.167194120282179171e+00,1.376348310763575000e+00,1.255448906358672545e+01
7.754578028867584294e+00,2.339189584297574953e+00,1.255411510016747556e+01
7.249438234761731437e+00,3.194436015264848105e+00,1.255388187068844452e+01
6.616312664885597883e+00,3.901420112646718064e+00,1.255442927773909823e+01
5.242366807013279839e+00,4.316044128942374769e+00,1.070145725787263835e+01
4.411474640256065172e+00,4.730991089431247687e+00,1.070116046649527775e+01
3.670972526840138972e+00,5.040438166701950884e+00,1.070106119199280315e+01
2.919959513854892386e+00,5.252020299740443932e+00,1.070119881710366272e+01
2.143433899262076281e+00,5.491308627184345426e+00,1.070167785848606634e+01
1.322585449329198859e+00,5.621021159251410104e+00,1.070093771436885532e+01
4.850861345365895527e-01,5.616729997319011680e+00,1.070080704817099537e+01
-4.072605702843681286e-01,5.463971970608750617e+00,1.070064694162160102e+01
-1.254204792344159713e+00,5.334056109934729228e+00,1.070109663471683525e+01
-2.158068526318038138e+00,5.093145077177771540e+00,1.070105468373227176e+01
-3.095054422526634319e+00,4.694093193930025443e+00,1.070088566023780530e+01
-4.112515777155553387e+00,4.129450875658960740e+00,1.070151111625502338e+01
-5.015377774763219776e+00,3.361857109262872179e+00,1.070114656031094924e+01
-5.743158608823535793e+00,2.486149106950426013e+00,1.070086868956877524e+01
-6.330805228093413284e+00,1.411518162029788082e+00,1.070042628707581578e+01
-6.697945099344517317e+00,2.055110992085900090e-01,1.070066626087951711e+01
-6.779346974543684290e+00,-1.037205341477837495e+00,1.070191157916007008e+01
-6.462333702673830338e+00,-2.315046556234359620e+00,1.070176101121231227e+01
-5.966259766931536923e+00,-3.512695419888050896e+00,1.070068562126618161e+01
-5.378601854476272592e+00,-4.630007948901961434e+00,1.070072266317709264e+01
-4.519057835703709891e+00,-5.605795347285945418e+00,1.070036764269620022e+01
-3.381545213224182334e+00,-6.371512961987222390e+00,1.070106594358063212e+01
-2.200171548635021956e+00,-7.016479230740412909e+00,1.070123664870357416e+01
-9.312578583263284582e-01,-7.436216533941093054e+00,1.070143211442123388e+01
3.534673969605126587e-01,-7.637761425621511613e+00,1.070131101214104241e+01
1.636816578794909605e+00,-7.576574042904940853e+00,1.070121310882553800e+01
2.877808740647412655e+00,-7.159739956878109268e+00,1.070161470913474488e+01
3.980793620775399333e+00,-6.802824502481961133e+00,1.070139575180957792e+01
4.997976295421681314e+00,-6.146059581780065173e+00,1.070116954680970878e+01
5.913005835807217281e+00,-5.392383993368282447e+00,1.070068723454753368e+01
6.688073090415954880e+00,-4.563999434215599393e+00,1.070033792341107670e+01
7.257215418512028116e+00,-3.647011304878205795e+00,1.070086950968109463e+01
7.678217116395866348e+00,-2.677141920988567847e+00,1.070105617480131777e+01
8.052595129355873738e+00,-1.760695882733211537e+00,1.070081694589323185e+01
8.222133804926938794e+00,-8.037927309253685149e-01,1.070124038514740050e+01
8.257446157067853676e+00,1.974345132298775118e-01,1.070108073826762229e+01
8.025723503832091765e+00,1.273572317721269886e+00,1.070145895531754832e+01
7.587930834368758148e+00,2.284218251069070504e+00,1.070131950016555678e+01
6.945625315472833350e+00,3.132249047067543479e+00,1.070119368678107463e+01
6.182233264239994419e+00,3.810199302920521447e+00,1.070129196633691926e+01
5.176515285271740652e+00,4.069801451247598401e+00,8.846621436434794816e+00
4.353941731726280295e+00,4.515464918873838940e+00,8.846848950806167622e+00
3.565847400758821450e+00,4.812236795235152798e+00,8.847576272032902978e+00
2.810376876075902253e+00,5.043387574685437080e+00,8.847609907616142522e+00
1.985127627354894120e+00,5.327295363895504288e+00,8.847397328654608373e+00
1.119150471381323397e+00,5.510734239717550054e+00,8.846024347749619210e+00
3.007537074833390722e-01,5.539094273100999999e+00,8.846296400887867506e+00
-5.772497142869463804e-01,5.410399119976645466e+00,8.847282716736554420e+00
-1.514009193095025463e+00,5.256093599728700383e+00,8.846986987305948347e+00
-2.466216542455222704e+00,5.006509191139365100e+00,8.847635009982603549e+00
-3.426635886501794737e+00,4.582758749555486233e+00,8.848029640901348358e+00
-4.395333683791474044e+00,4.033709702189036683e+00,8.847657279641904182e+00
-5.285528263058797194e+00,3.285458909527564586e+00,8.846393446004150007e+00
-6.002219123974550818e+00,2.382374390914661522e+00,8.846716231410187703e+00
-6.564951085658750074e+00,1.333580019756994028e+00,8.847284126605211796e+00
-6.894381390326870473e+00,1.001830234226431804e-01,8.846333501422344980e+00
-6.917730664400292717e+00,-1.178671342309264514e+00,8.847432977811301669e+00
-6.655783050597073647e+00,-2.476868830867508642e+00,8.846968550727279279e+00
-6.194001624839786224e+00,-3.687671218647654126e+00,8.847061507062589314e+00
-5.542094528586423152e+00,-4.775979291858400089e+00,8.847755582700747468e+00
-4.571967368650396324e+00,-5.692768596727614927e+00,8.847135137015047945e+00
-3.569936609487915913e+00,-6.510287474221925663e+00,8.846974255198075454e+00
-2.416854683774483981e+00,-7.230065416747795126e+00,8.846623567076836281e+00
-1.172873300893982673e+00,-7.697238205679806100e+00,8.846673786220778268e+00
9.955598090961514934e-02,-7.937749957525676692e+00,8.846703588284178466e+00
1.407640400657425239e+00,-7.926295674953475867e+00,8.847626141460162685e+00
2.659376468530255888e+00,-7.666983891823760722e+00,8.846444120176201409e+00
3.853472326819291194e+00,-7.142065709613024893e+00,8.845815227333616804e+00
4.902868186525150662e+00,-6.473515412653748413e+00,8.846109298570009827e+00
5.848162907301705182e+00,-5.686424887750437307e+00,8.845222196615084798e+00
6.624469056391994570e+00,-4.807750488739509720e+00,8.846859961024199137e+00
7.202494536161311522e+00,-3.857178149676868451e+00,8.847288166037653667e+00
7.634297889648727242e+00,-2.904334500909664385e+00,8.846785956825019781e+00
7.977881640211673897e+00,-1.962623775908813206e+00,8.846884436725583001e+00
8.081892692567668846e+00,-9.600916382920174907e-01,8.846489310340270862e+00
7.930084302000502738e+00,9.981382618289344477e-02,8.846876349508871584e+00
7.643274283291017213e+00,1.117952492855626812e+00,8.846844925431497586e+00
7.219856864818974707e+00,2.067913082822613102e+00,8.846632197020138477e+00
6.641900715898615637e+00,2.847238307683481739e+00,8.847737972711636090e+00
5.933029328826338933e+00,3.496812563191644241e+00,8.848024361050489617e+00
4.976406434826094127e+00,3.810425700074518751e+00,6.992924867173750947e+00
4.243586393344965124e+00,4.273206508369380430e+00,6.992958163933945315e+00
3.499783309814292309e+00,4.641349803179801725e+00,6.993383644974852764e+00
2.708111550260778877e+00,4.966984400876022221e+00,6.993085678282212392e+00
1.906149130961763083e+00,5.227896900272481773e+00,6.993531602577650830e+00
1.061260514114438003e+00,5.429384446640437289e+00,6.993102304874985187e+00
1.914819176094082476e-01,5.503723583464819491e+00,6.992616135698153101e+00
-7.556428669367415418e-01,5.431229620054030427e+00,6.993280016288659695e+00
-1.751715581589923465e+00,5.207566382863616283e+00,6.993673867656715615e+00
-2.746775672359706544e+00,4.947791739155997348e+00,6.993271814151604815e+00
-3.759177844896357978e+00,4.533290523714176068e+00,6.992963486929721917e+00
-4.648098910924632676e+00,3.980158615263476474e+00,6.992080548712503507e+00
-5.498835482233197069e+00,3.241231578070316921e+00,6.992088776110010784e+00
-6.200279231723390794e+00,2.348729537389300237e+00,6.992271470208561546e+00
-6.694344942504672602e+00,1.311639391879984906e+00,6.993263232945488461e+00
-6.963108671062300026e+00,1.212894574103909884e-01,6.993554226973779819e+00
-7.051974747877070016e+00,-1.137584587550926063e+00,6.993074268363776547e+00
-6.832527455047552323e+00,-2.420759023131207499e+00,6.993200457404003423e+00
-6.362781645501748962e+00,-3.661672486153863204e+00,6.993997925404429772e+00
-5.678032975871885490e+00,-4.790561452116246066e+00,6.994038981711430125e+00
-4.749861092681955554e+00,-5.721160885837018206e+00,6.992226996643064574e+00
-3.793208497102998678e+00,-6.602011052919555922e+00,6.991413807350158827e+00
-2.714533230148831855e+00,-7.334701170521805480e+00,6.992846783295404656e+00
-1.436798512587512011e+00,-7.816624963090745837e+00,6.992665112835888763e+00
-1.365480653319646187e-01,-8.064804957923694673e+00,6.992365611405325865e+00
1.188452376170063385e+00,-8.093183376553033881e+00,6.993156432402078515e+00
2.489022879240430530e+00,-7.824754289786210570e+00,6.993086383081124069e+00
3.698028134084147656e+00,-7.269713612124560242e+00,6.993118109289983231e+00
4.753442747892507647e+00,-6.579257431148334945e+00,6.992949475168968476e+00
5.688743168451294352e+00,-5.791318928220965390e+00,6.992461397542387047e+00
6.443349877971492390e+00,-4.911386659948203004e+00,6.992887733084482527e+00
7.020829727785821817e+00,-3.962999083519465060e+00,6.992611852905760372e+00
7.441063550563518092e+00,-3.013851518844251398e+00,6.992822716931240912e+00
7.736515512976260389e+00,-2.050020161207675162e+00,6.992875787827903089e+00
7.798704798480755152e+00,-1.002044843188499623e+00,6.992512528344390077e+00
7.622620948176191291e+00,6.789619442996441823e-03,6.992905171027582689e+00
7.292091756528261470e+00,9.754886023378610549e-01,6.993162727791272459e+00
6.854198185104311669e+00,1.855547561033480619e+00,6.993386580160110277e+00
6.270307993876960140e+00,2.583937825570466806e+00,6.992972260454907385e+00
5.662961430442474686e+00,3.232087811909525321e+00,6.993495252650008709e+00
4.847460852143655963e+00,3.500210125543091966e+00,5.139169920292109062e+00
4.196184608359097012e+00,4.022038089696934549e+00,5.138058390095928907e+00
3.488933812372466914e+00,4.490589383915814636e+00,5.139245193587342442e+00
2.717559274060749708e+00,4.866523136218291690e+00,5.138849832500192782e+00
1.906710296070464938e+00,5.170692808889530312e+00,5.138813695253662495e+00
1.022759931367582809e+00,5.397131555048058082e+00,5.138094188933377993e+00
9.264363132727027050e-02,5.519367050893025706e+00,5.138804587121207135e+00
-8.995780360828808941e-01,5.471835974139289682e+00,5.138805771809430212e+00
-1.914204603638986812e+00,5.304763533670399767e+00,5.139010767326964491e+00
-2.933216663284394787e+00,5.018249045410164477e+00,5.139929929850822532e+00
-3.957364220751337758e+00,4.596990122671461343e+00,5.138565039593109063e+00
-4.832482057011129761e+00,3.988213330400759205e+00,5.138285540677905772e+00
-5.656205019354016983e+00,3.280036189687242310e+00,5.138911895337759717e+00
-6.355905680611702024e+00,2.401790202617852810e+00,5.138656995989180132e+00
-6.870886496642184760e+00,1.391415771554868508e+00,5.139356807876240829e+00
-7.125898178640635905e+00,2.308340590257930147e-01,5.138370244785598118e+00
-7.153038840272545329e+00,-1.032929398077221395e+00,5.138430193877463914e+00
-6.946653637078671117e+00,-2.294914149470823173e+00,5.139300878585868482e+00
-6.489133015037664265e+00,-3.497833589800519505e+00,5.138868491465077959e+00
-5.821106735566798918e+00,-4.561746552692644840e+00,5.138115206332489748e+00
-5.011000639360783993e+00,-5.512339789190761508e+00,5.137858553615999746e+00
-4.042105864423177763e+00,-6.468340297554786567e+00,5.138829834504670124e+00
-2.913241631068858695e+00,-7.232745050300281697e+00,5.138502528522219670e+00
-1.687244094930694382e+00,-7.704965727140206333e+00,5.138879054332126550e+00
-3.911751310758651012e-01,-7.998483943896224524e+00,5.138541611554534150e+00
9.724514252545974902e-01,-8.079695820487891922e+00,5.138851756997677711e+00
2.312489207706147187e+00,-7.807371768190050076e+00,5.139051197279330907e+00
3.549093282460185961e+00,-7.237506823304862280e+00,5.138643222055372384e+00
4.571241423809841997e+00,-6.525323035445959263e+00,5.138715846461705539e+00
5.474847364042387809e+00,-5.736147299685396383e+00,5.139383114110774642e+00
6.193202362678172257e+00,-4.860266411257687658e+00,5.139031171685012112e+00
6.773528969240686592e+00,-3.929829294011556229e+00,5.138163473324325103e+00
7.185041036594594921e+00,-2.980652666472343171e+00,5.138052050215231148e+00
7.434549801851794371e+00,-1.983156565736331478e+00,5.137960679873486924e+00
7.432052362174426108e+00,-9.664828985830331565e-01,5.139074643839237844e+00
7.247216877041120497e+00,-2.069395095499365622e-02,5.139702745278261986e+00
6.904288430562558254e+00,8.687467627400821124e-01,5.138521382991167563e+00
6.448118027025072863e+00,1.665369329464563952e+00,5.138355202664053323e+00
5.920527114003304447e+00,2.359036939561389268e+00,5.138634367037914430e+00
5.382736367814850098e+00,2.909866930389759521e+00,5.139327984319477238e+00
4.714422605266754829e+00,3.367511309713239420e+00,3.285525688958056190e+00
4.087261252768730202e+00,3.934858597152264714e+00,3.285594671245515741e+00
3.401736873525860183e+00,4.461018768746275676e+00,3.284439202164129323e+00
2.656620508698194882e+00,4.897641504748306396e+00,3.284098563086701894e+00
1.851758114146007772e+00,5.237787813519010349e+00,3.284620934774608703e+00
9.488673670002292226e-01,5.476314929926754616e+00,3.285513142886744564e+00
-1.063583564431969108e-02,5.570161979220995541e+00,3.284526860181062435e+00
-1.003421296743059132e+00,5.545477960667842154e+00,3.283887414682091777e+00
-2.021498829097971406e+00,5.401976219147841540e+00,3.284658457505079898e+00
-3.040566660101667207e+00,5.121761968477565041e+00,3.283950209509832074e+00
-4.043436095740261749e+00,4.699562340864781973e+00,3.285092589622360837e+00
-4.925173585703138457e+00,4.104329433647458281e+00,3.284625311519231872e+00
-5.728065576680240412e+00,3.336335275038775361e+00,3.284306788689344447e+00
-6.401857994309692934e+00,2.463200553539326876e+00,3.284407867186805330e+00
-6.888453478153713228e+00,1.452517982208652469e+00,3.284903994039849007e+00
-7.184554776599444637e+00,3.156557682901474648e-01,3.285591814371521924e+00
-7.243146542610613636e+00,-9.163050978574875938e-01,3.285625956816151216e+00
-6.989681389008445933e+00,-2.109902682698041154e+00,3.284732437088169643e+00
-6.499919627297673586e+00,-3.235764462315263934e+00,3.284414003344975352e+00
-5.881656577954720966e+00,-4.316426200852806261e+00,3.284599059693507073e+00
-5.147826499498471264e+00,-5.320775298319689206e+00,3.284855245819537917e+00
-4.241725209663566254e+00,-6.161779906807563378e+00,3.284259895902213788e+00
-3.176882347685638486e+00,-6.855127401566318390e+00,3.283829946510968156e+00
-1.945130050196573368e+00,-7.383336212664793230e+00,3.283985300448608591e+00
-5.964626859235100387e-01,-7.738818652264294329e+00,3.285045033989232532e+00
7.741398820849905160e-01,-7.846945229061014437e+00,3.285610879870941581e+00
2.128161992773639266e+00,-7.601253024597947494e+00,3.284882401797520224e+00
3.368407534052812125e+00,-7.053151218898309871e+00,3.283875090405921071e+00
4.338309151912977057e+00,-6.345408577192748645e+00,3.283671108353471535e+00
5.213398651375025672e+00,-5.549938325348808377e+00,3.285037825013016555e+00
5.946941915613970231e+00,-4.701755816986704417e+00,3.285359163094453194e+00
6.475104382973763784e+00,-3.761463714261075619e+00,3.285035235907419970e+00
6.834866729083620029e+00,-2.786402515392791823e+00,3.284202873518979438e+00
6.967419745024416855e+00,-1.824271589324157894e+00,3.284234925766083890e+00
6.936100364319009337e+00,-8.760964469688625744e-01,3.285515931795511602e+00
6.786349669322804701e+00,-1.707708764847892802e-02,3.284405317603659391e+00
6.458176018194173196e+00,7.197965709468632234e-01,3.283773378043171931e+00
6.048138990760555167e+00,1.229388439887129758e+00,3.284379976824393754e+00
5.638927106551966162e+00,1.949955883030897175e+00,3.284710595154316959e+00
5.170801348797908759e+00,2.648866910555231602e+00,3.284826880136567873e+00
4.547821218611539429e+00,3.370389045779424997e+00,1.429930673303025701e+00
3.941087029892824667e+00,3.981296258513639774e+00,1.429699546750301087e+00
3.280333079180095979e+00,4.545538751660413546e+00,1.430368915992832335e+00
2.562951855374383303e+00,5.007147963225730081e+00,1.431003887003552411e+00
1.743938268281407744e+00,5.356822880317659852e+00,1.431071539727126529e+00
8.278111060758504003e-01,5.570179536465146519e+00,1.430812546073951141e+00
-1.535869700866375753e-01,5.655898205501892484e+00,1.430388313204978612e+00
-1.134702139173488167e+00,5.641842110950711309e+00,1.430594356026301250e+00
-2.139156137334957908e+00,5.501096817177804077e+00,1.430778377711048988e+00
-3.132328406326649439e+00,5.210524874393851924e+00,1.430925745682983585e+00
-4.091357171048549901e+00,4.788291950719444579e+00,1.430685734950316146e+00
-4.955356681801910135e+00,4.185722411346661787e+00,1.430803239538747773e+00
-5.751661529514441540e+00,3.435565059251727504e+00,1.430010637203617208e+00
-6.413795532478814287e+00,2.534315513054047120e+00,1.430813843296040666e+00
-6.882080026838213627e+00,1.524176484125252973e+00,1.430806023418855544e+00
-7.151042205067619228e+00,3.935979886421321350e-01,1.430761363529323926e+00
-7.174163386079411175e+00,-7.912575581731042806e-01,1.432416153363374578e+00
-6.911723126649003568e+00,-1.937648916128354548e+00,1.430915522450954880e+00
-6.436385800616784891e+00,-3.035590456129311221e+00,1.430813413920055011e+00
-5.814914841561066083e+00,-4.027951361288133469e+00,1.431725927213599814e+00
-5.158065136384029969e+00,-5.038591137216310578e+00,1.431238513188103800e+00
-4.253405558914184148e+00,-5.835030539629996404e+00,1.431149910830280536e+00
-3.204887108417036057e+00,-6.510940066502972634e+00,1.430938511362312759e+00
-2.023199598784192865e+00,-7.006656990952662589e+00,1.430375136589790319e+00
-7.358821537541117008e-01,-7.331195896623534658e+00,1.431112232324948774e+00
5.915409002428657637e-01,-7.409718197925808880e+00,1.431118385989209152e+00
1.898340034435527235e+00,-7.185607372889696087e+00,1.431178476513274234e+00
3.099159746969875062e+00,-6.682093289042273732e+00,1.430239449041855959e+00
4.042404827577441573e+00,-5.981705806591686603e+00,1.430329489360427475e+00
4.857021257446897167e+00,-5.216328439891378288e+00,1.431055295739524835e+00
5.538905827163148388e+00,-4.391948348517599854e+00,1.430890698904573322e+00
6.042038532726188294e+00,-3.479111245247163087e+00,1.430736698901762916e+00
6.311852020923473638e+00,-2.597261402946760889e+00,1.431052300454050075e+00
6.425599156696118364e+00,-1.697321633931711649e+00,1.429886727368483657e+00
6.370801567877680149e+00,-8.913907031687134941e-01,1.430145601986897663e+00
6.278086663574916848e+00,-1.483500180430697979e-01,1.431298627761970588e+00
6.034316188552480753e+00,5.779088044249756084e-01,1.431261400032122655e+00
5.733498163184788332e+00,1.213981280724899747e+00,1.431101512109043572e+00
5.398936355062653014e+00,1.899527258459825507e+00,1.431387239375884635e+00
4.970461286221911301e+00,2.613340842756837645e+00,1.430863871357905381e+00
4.331649689196705566e+00,3.526422386092951555e+00,-4.230661887613667571e-01
3.764516182909867226e+00,4.128282016090595974e+00,-4.236136760123669909e-01
3.131417435431002261e+00,4.702788121047403180e+00,-4.233534327914042494e-01
2.394445571469151268e+00,5.147769140297233648e+00,-4.226551757271222454e-01
1.509480516500791847e+00,5.441455777573599661e+00,-4.230470465242238687e-01
6.245706808418626244e-01,5.638832368096593939e+00,-4.229206113887162832e-01
-3.292433673054806498e-01,5.731802684853575691e+00,-4.236730238050512853e-01
-1.285346037897897364e+00,5.716508307366192199e+00,-4.230122214727846663e-01
-2.273333650512742832e+00,5.564499565379325219e+00,-4.226998075037292080e-01
-3.238863822111903712e+00,5.272535165529702361e+00,-4.229919179178719402e-01
-4.134773931376289902e+00,4.828707657993043689e+00,-4.235593081599456911e-01
-4.993608472111574770e+00,4.232271225095858291e+00,-4.244079313749545834e-01
-5.767824052084406183e+00,3.502520470790805085e+00,-4.237036487528318962e-01
-6.374891986560566437e+00,2.592423618947075070e+00,-4.230565985562980691e-01
-6.787530143405351879e+00,1.547880766538916930e+00,-4.235699158044580193e-01
-7.047208210048677479e+00,4.539192354603963642e-01,-4.243706933179998142e-01
-7.006014033793095841e+00,-6.933216590439822413e-01,-4.241413668055556419e-01
-6.724050239458115641e+00,-1.793344174618944020e+00,-4.235746624193423293e-01
-6.256116553953408932e+00,-2.803448701742386806e+00,-4.221450135180926377e-01
-5.630841097206323198e+00,-3.734878766233526992e+00,-4.226425855843191637e-01
-4.971708004786566271e+00,-4.740519850368122512e+00,-4.235227317673641023e-01
-4.079641178293780257e+00,-5.449692499170642357e+00,-4.226593535333298957e-01
-3.086074740510300618e+00,-6.072039426924389360e+00,-4.225951676378638666e-01
-1.980819357106418988e+00,-6.497570142783203551e+00,-4.234727577100071971e-01
-7.838410529311983233e-01,-6.752695276512974409e+00,-4.237120039334357768e-01
4.409085101002707119e-01,-6.797062794483364812e+00,-4.229022679983532318e-01
1.657528077349634810e+00,-6.574475332414767337e+00,-4.241590881825679782e-01
2.770994616855006143e+00,-6.135373489817608217e+00,-4.244373355166654038e-01
3.676183794924841042e+00,-5.488781736570876646e+00,-4.223319922340759147e-01
4.473822248204263552e+00,-4.786678410915232718e+00,-4.226279693445147978e-01
5.092073300260654634e+00,-4.007285609107197999e+00,-4.234501705101180735e-01
5.572320652726387991e+00,-3.164697819058517325e+00,-4.231553534806671291e-01
5.843991782640246768e+00,-2.324999404144234560e+00,-4.234792905488606318e-01
5.889024070498405372e+00,-1.547015393290483098e+00,-4.230156171363403383e-01
5.899825448546851092e+00,-7.817451037140497050e-01,-4.224951410980983257e-01
5.826613419034691432e+00,-7.810478592052361169e-02,-4.231730092127699017e-01
5.669433260360255744e+00,6.193118218794601004e-01,-4.238978842728569618e-01
5.471783123480394195e+00,1.317722684534126776e+00,-4.239087875416421847e-01
5.277618721539365509e+00,2.123660163818088975e+00,-4.234521702461941373e-01
4.851058043070713310e+00,2.894268639353041905e+00,-4.229204426461658506e-01
4.076965274925564486e+00,3.681008472209267079e+00,-2.276567192842557041e+00
3.512758851080024947e+00,4.319985249948052441e+00,-2.276705410389579853e+00
2.835758733502936391e+00,4.907893241280347318e+00,-2.277096721992386552e+00
1.942214191932546630e+00,5.262091009466899116e+00,-2.277917494998929815e+00
1.169615141582955653e+00,5.516973048459794526e+00,-2.278782645148513808e+00
3.726353500901446458e-01,5.694186623084798171e+00,-2.276662560013327674e+00
-5.203391371099213014e-01,5.764244724882770399e+00,-2.277011670415037603e+00
-1.464387122534103192e+00,5.742315734838819630e+00,-2.277321742940943139e+00
-2.416272575526753563e+00,5.577157468279219543e+00,-2.277766372351599955e+00
-3.358241804668602892e+00,5.269806942872229172e+00,-2.277749867657697713e+00
-4.196479947569856428e+00,4.822076781732906881e+00,-2.277896424564315403e+00
-5.039195137468849062e+00,4.229097200064845907e+00,-2.277291709376899842e+00
-5.751101823572549954e+00,3.499293643796867137e+00,-2.277673439212868356e+00
-6.308032761386177967e+00,2.578932461684972921e+00,-2.277461096950053943e+00
-6.676793710465322995e+00,1.523112353372432004e+00,-2.276910748523481409e+00
-6.875464806104250037e+00,4.461626439269931188e-01,-2.277180262522040088e+00
-6.785677373655550682e+00,-6.232290787134204813e-01,-2.276684231138195624e+00
-6.474522464060968652e+00,-1.680312337876643580e+00,-2.277320519666313992e+00
-6.012527054059749965e+00,-2.652623650339295924e+00,-2.277994186188816439e+00
-5.370615810936631540e+00,-3.480815728546733379e+00,-2.277484559668256470e+00
-4.630297958403288838e+00,-4.249702495673950864e+00,-2.276646771688696003e+00
-3.815484717690889482e+00,-4.909801051837542119e+00,-2.277511938714699369e+00
-2.929538965610310797e+00,-5.424775746517341624e+00,-2.278016154835977858e+00
-1.915788283869794828e+00,-5.803498409211567122e+00,-2.277326615337143867e+00
-8.070772692203931342e-01,-6.015186259913698485e+00,-2.277102792096077799e+00
2.868766607155896486e-01,-6.044582875746923101e+00,-2.278053509052095915e+00
1.402982671323649955e+00,-5.863948036202751624e+00,-2.277327069685170624e+00
2.428459386351806693e+00,-5.455750838646808099e+00,-2.276838954205603116e+00
3.286954462468921534e+00,-4.934363587391139561e+00,-2.277609072261264522e+00
4.029127097711925565e+00,-4.291777887176256634e+00,-2.278361341999497025e+00
4.648469397761349597e+00,-3.602227440042673479e+00,-2.277724007703289200e+00
5.099034812126733485e+00,-2.837312780310415228e+00,-2.277773795877688467e+00
5.367567963973364442e+00,-2.036529367791036993e+00,-2.278304679452275217e+00
5.447678785460219331e+00,-1.271783785841856584e+00,-2.277994871222287721e+00
5.437220005061451644e+00,-5.682188999558176468e-01,-2.277240916305944385e+00
5.418684824117163679e+00,9.016504991516011147e-02,-2.277227861067666836e+00
5.355423976325983659e+00,8.024215550362943095e-01,-2.278031893426281318e+00
5.258400088175621434e+00,1.532741507093537958e+00,-2.277415575068152176e+00
5.021289273037234935e+00,2.283774864261864046e+00,-2.277466934432164081e+00
4.605209641434143464e+00,3.008252702878121632e+00,-2.276823227949558159e+00
3.730553214623995473e+00,3.788379380723203127e+00,-4.131057011831284598e+00
3.193519612116818340e+00,4.408998548132468720e+00,-4.131308600369827388e+00
2.398325221477764391e+00,4.902295839683952217e+00,-4.131639128668561867e+00
1.636499199082491973e+00,5.267579165334815627e+00,-4.132488446656482850e+00
8.142558526877243796e-01,5.539976484906750542e+00,-4.131879536395509867e+00
-4.384964773242475133e-03,5.696890357972694829e+00,-4.131774988040179508e+00
-8.299082661536191230e-01,5.729092291559215511e+00,-4.131003148169934747e+00
-1.669484694475795727e+00,5.703001822026705803e+00,-4.130039094656565268e+00
-2.576929991634675066e+00,5.536587074978223555e+00,-4.130912202089140450e+00
-3.486611536586754490e+00,5.230856849373917150e+00,-4.131813657810767815e+00
-4.301161769638602195e+00,4.767455136677754446e+00,-4.130234622456730342e+00
-5.068468943028613616e+00,4.160286481104346734e+00,-4.130677786580707611e+00
-5.697486189810176072e+00,3.398789315648959253e+00,-4.131312222790825217e+00
-6.206000522419883758e+00,2.486612028408266895e+00,-4.132055621975966098e+00
-6.538709831171619413e+00,1.464023945685061223e+00,-4.131419041551574800e+00
-6.625227861657682737e+00,4.066476010542697805e-01,-4.132033332854758712e+00
-6.483144434994164484e+00,-5.991136669863732500e-01,-4.131922815121304993e+00
-6.127287632025041120e+00,-1.515086274584825698e+00,-4.131695753045490527e+00
-5.633812215121404066e+00,-2.362223418117374685e+00,-4.131778820773262417e+00
-4.976301668775524156e+00,-3.094342351202608477e+00,-4.131077493976266446e+00
-4.259460940865195333e+00,-3.681162174184601010e+00,-4.130731902025607027e+00
-3.545913901322425676e+00,-4.252180032906466955e+00,-4.131580833959777266e+00
-2.730940740107736797e+00,-4.714463613999155811e+00,-4.132465291847383426e+00
-1.812351884778779176e+00,-5.057357847814839324e+00,-4.131302639688675171e+00
-8.335896651030807458e-01,-5.199617585697345667e+00,-4.130846376129473363e+00
1.548110921683842900e-01,-5.213659177068191042e+00,-4.131908793234518207e+00
1.150618609159329786e+00,-5.062883185759032401e+00,-4.131932385988215550e+00
2.057517598687911953e+00,-4.762090592134606837e+00,-4.132380322264908479e+00
2.862475559549363169e+00,-4.327670634128497618e+00,-4.132143890789130580e+00
3.569837381831832968e+00,-3.767500482361574754e+00,-4.131091968514001955e+00
4.165104370526673705e+00,-3.166672947161214946e+00,-4.131284532955441513e+00
4.621547194704124450e+00,-2.492161356307344811e+00,-4.131845037820315980e+00
4.889443855193333910e+00,-1.734390429703861480e+00,-4.131653030638272384e+00
5.025702403519255235e+00,-1.024441964251816994e+00,-4.131707269987808573e+00
5.052382705354014014e+00,-3.413306846191679345e-01,-4.130789390016588847e+00
5.103130836705301654e+00,3.254390869206825743e-01,-4.131334874667011547e+00
5.094150864904833931e+00,1.032414742554418341e+00,-4.131858976192312127e+00
4.921334140554673553e+00,1.715766224206540791e+00,-4.130783711680670933e+00
4.622074758610067668e+00,2.413984527635701038e+00,-4.130855130424603949e+00
4.232147262929901288e+00,3.114693587555041887e+00,-4.131312031953810582e+00
3.286978624515567216e+00,3.802646163505271293e+00,-5.987150781292383428e+00
2.729831324633752221e+00,4.391434222063142379e+00,-5.986840124871978475e+00
2.041135815501529116e+00,4.878708873744438179e+00,-5.986645660044043638e+00
1.297410921996256628e+00,5.234471306059034212e+00,-5.986732432061888431e+00
5.030874619080938359e-01,5.467061141521872614e+00,-5.986190450922753037e+00
-2.702962482573753045e-01,5.620621911748748367e+00,-5.985400558259279968e+00
-1.092329432230691788e+00,5.638403099576974498e+00,-5.985072340876446795e+00
-1.879514453083241943e+00,5.606414460351779816e+00,-5.985925228588959257e+00
-2.715906002892775284e+00,5.443219425713096804e+00,-5.985660317463519675e+00
-3.580466660842247961e+00,5.127599922147958011e+00,-5.985208642326107942e+00
-4.368548425915879996e+00,4.674081755361111590e+00,-5.986097142517630587e+00
-5.081013552003563305e+00,4.059032797618546518e+00,-5.986231500496928426e+00
-5.640971278062172800e+00,3.281417894079584396e+00,-5.985948940550721353e+00
-6.071311186705587559e+00,2.379647369992495154e+00,-5.986035892678346571e+00
-6.304548597886700634e+00,1.391190762560506888e+00,-5.984781607842646345e+00
-6.263874949840340989e+00,4.131332623397052650e-01,-5.984715290927180575e+00
-6.037299874604865835e+00,-4.453416184201464123e-01,-5.985549004472161094e+00
-5.661648921984713922e+00,-1.267585804586548459e+00,-5.985851491292907944e+00
-5.172205465159814608e+00,-2.003047861113145256e+00,-5.985199332175730191e+00
-4.638167367165134891e+00,-2.673380963380785680e+00,-5.985408271799904867e+00
-3.985269212106570258e+00,-3.207465988916647248e+00,-5.985841996816880339e+00
-3.284431992144293044e+00,-3.671963066398531428e+00,-5.986929114494752291e+00
-2.514275678261750802e+00,-4.015050470860785481e+00,-5.986382030442769953e+00
-1.711593048420827046e+00,-4.295059502595795387e+00,-5.985346148337764127e+00
-8.345320686423299827e-01,-4.384418963334777430e+00,-5.985627273436462836e+00
4.326642323514212629e-02,-4.378910083203169989e+00,-5.986099142632867576e+00
8.883453949200835753e-01,-4.263755679666078713e+00,-5.986253021613598513e+00
1.695361440703721412e+00,-4.019628468759415263e+00,-5.986281528752268599e+00
2.455358434646650601e+00,-3.704491225470458282e+00,-5.986020354403108534e+00
3.130918100841378671e+00,-3.255481298077576469e+00,-5.985760767410916117e+00
3.715794552378100413e+00,-2.750755283174177279e+00,-5.985005551631690679e+00
4.155732468224632825e+00,-2.150360431664568139e+00,-5.984571252019827980e+00
4.463808007801959299e+00,-1.458217120941834199e+00,-5.985590149574310459e+00
4.623917603936078535e+00,-7.730190273625336950e-01,-5.986301576242984979e+00
4.654100499680135172e+00,-1.181404269587075784e-01,-5.985875337836450427e+00
4.650794181189953136e+00,5.533031285117603337e-01,-5.986032218956951034e+00
4.582876630995572853e+00,1.217644550602172249e+00,-5.985977885061608994e+00
4.412615433668170439e+00,1.851550045375197184e+00,-5.985597339246359283e+00
4.129257530403413590e+00,2.492684660592049184e+00,-5.986392531569467934e+00
3.765226555897520200e+00,3.154278012227001771e+00,-5.986980872940029563e+00
2.830746544876919124e+00,3.778336023142088607e+00,-7.839065505816994239e+00
2.333273690182920301e+00,4.337791175820528977e+00,-7.840450139530144469e+00
1.705482353463843692e+00,4.792859717305034017e+00,-7.840036837891784849e+00
9.924313859290186945e-01,5.149495848271300247e+00,-7.839096797349711210e+00
2.300181113789773191e-01,5.377404538911204845e+00,-7.840344215557478513e+00
-4.969701318804845003e-01,5.476999560745793971e+00,-7.839638471434946076e+00
-1.257445808538763199e+00,5.440979357393210591e+00,-7.840481594590896108e+00
-2.010810080772099440e+00,5.387794063304481185e+00,-7.840030006321411449e+00
-2.777453712223082682e+00,5.261559428574209996e+00,-7.839372581981242760e+00
-3.559491004925467550e+00,4.966319591379938281e+00,-7.839610050602157543e+00
-4.300905117162365343e+00,4.532938247412927169e+00,-7.840319094359410990e+00
-4.942923174445099654e+00,3.922998622396483004e+00,-7.839552196476217816e+00
-5.433962605929831824e+00,3.151015066125904429e+00,-7.838498467008188975e+00
-5.751527730955736217e+00,2.271848997235108580e+00,-7.839056063422483511e+00
-5.890053722883291876e+00,1.380968754918258767e+00,-7.839711777857492514e+00
-5.780180606930417575e+00,5.400761249052806745e-01,-7.838900744378769048e+00
-5.539429018351008871e+00,-2.353501779679110784e-01,-7.839725972027407508e+00
-5.179071593283208763e+00,-9.518563354551817790e-01,-7.840831974683512229e+00
-4.771587957249678880e+00,-1.602393027853899810e+00,-7.839413367870735172e+00
-4.252269829075137508e+00,-2.195665000887910612e+00,-7.838999579500861792e+00
-3.628250444548522857e+00,-2.632383630433219768e+00,-7.840685001705724133e+00
-2.981581674128401804e+00,-2.987687615483031855e+00,-7.840721333446427188e+00
-2.302189100398213562e+00,-3.282952002137839553e+00,-7.839773123502334684e+00
-1.595613095814817806e+00,-3.511415075821190612e+00,-7.839401858620977492e+00
-8.414866734413514182e-01,-3.601647411136087662e+00,-7.839593352727516340e+00
